ply
format ascii 1.0
comment PCL generated
element vertex 400
property float x
property float y
property float z
element camera 1
property float view_px
property float view_py
property float view_pz
property float x_axisx
property float x_axisy
property float x_axisz
property float y_axisx
property float y_axisy
property float y_axisz
property float z_axisx
property float z_axisy
property float z_axisz
property float focal
property float scalex
property float scaley
property float centerx
property float centery
property int viewportx
property int viewporty
property float k1
property float k2
end_header
0.85842276 -0.050296396 -0.020016953
0.85284209 -0.055914998 -0.016067475
0.88709259 -0.083115637 0.0054950635
0.88654131 -0.072418503 0.0063555785
0.88733929 -0.06406232 0.0062689651
0.87711275 -0.08712247 0.018712811
0.88398314 -0.084202513 0.01658953
0.89544016 -0.08490596 0.01631421
0.86562675 -0.072925955 0.018712886
0.87581372 -0.073013328 0.015754225
0.88505071 -0.075251497 0.016164539
0.89391631 -0.077696182 0.012801359
0.86713731 -0.062554836 0.019584756
0.87723047 -0.064378351 0.017381603
0.88555306 -0.06430842 0.016046677
0.89394641 -0.065297462 0.013856496
0.86959517 -0.059463978 0.018389739
0.87526834 -0.056956865 0.015101224
0.88646996 -0.055890776 0.016482789
0.87412059 -0.049276114 0.019977637
0.88664484 -0.046131629 0.017056471
0.86640483 -0.090269171 0.029943414
0.88848573 -0.093061537 0.027104855
0.89556313 -0.091414794 0.02521294
0.85918593 -0.08270406 0.029397037
0.8653785 -0.082520738 0.025539333
0.8755396 -0.084777966 0.025153924
0.88430572 -0.08545319 0.025167489
0.89413619 -0.086433053 0.025377417
0.85752547 -0.073101155 0.025523892
0.86636543 -0.073034517 0.028262191
0.87613773 -0.076325737 0.02462795
0.88511914 -0.074518204 0.026757952
0.89235878 -0.075224146 0.025521172
0.85645407 -0.062939398 0.028050777
0.86583948 -0.064237133 0.02695724
0.87432897 -0.065411545 0.026579266
0.8853308 -0.065312974 0.026032697
0.89362323 -0.066027328 0.023164283
0.85697651 -0.054858685 0.029706798
0.86646664 -0.054728273 0.026131475
0.87482214 -0.056085553 0.02500093
0.88497514 -0.055266224 0.025078779
0.89505172 -0.054842006 0.024885608
0.90125275 -0.054034736 0.024083346
0.87683678 -0.046452202 0.025833827
0.88582778 -0.046177242 0.026469845
0.89523041 -0.042910315 0.025245516
0.9038865 -0.043472428 0.024828823
0.88478595 -0.038354617 0.026368508
0.89251065 -0.039863169 0.021227933
0.85791826 -0.090291202 0.036354445
0.86884135 -0.090906948 0.035199072
0.873276 -0.093220346 0.036598664
0.88474017 -0.092203416 0.035093851
0.89550877 -0.092018433 0.035502717
0.90369684 -0.092552483 0.036184479
0.84472489 -0.082437247 0.03799215
0.85630119 -0.083511904 0.036240675
0.86529034 -0.08543881 0.036328178
0.87514699 -0.083781682 0.035882369
0.88548899 -0.084283754 0.034696538
0.89375168 -0.086201847 0.034645651
0.83757544 -0.073627181 0.039685536
0.84680963 -0.073457234 0.036471367
0.85548842 -0.074935198 0.036112003
0.86590326 -0.075294197 0.035701558
0.87503064 -0.075641528 0.035184413
0.88250703 -0.076080658 0.031724107
0.8949039 -0.079993337 0.030082285
0.8390491 -0.063160121 0.039319038
0.84530067 -0.062960029 0.036253881
0.85457593 -0.064722829 0.037064463
0.86462486 -0.065536141 0.035806138
0.87462598 -0.065351352 0.034132849
0.88254225 -0.061201327 0.031980187
0.84762776 -0.05665347 0.038574696
0.85680187 -0.056004725 0.035220608
0.86532521 -0.0556302 0.036505334
0.8742218 -0.054853689 0.034847539
0.88402629 -0.053483143 0.033258203
0.89334363 -0.052376729 0.032754701
0.85699463 -0.047010787 0.037503749
0.86556929 -0.045606855 0.035493214
0.87506479 -0.045623638 0.036870528
0.88518679 -0.045402758 0.035832707
0.89516789 -0.045472097 0.035610639
0.90373558 -0.045787957 0.035136394
0.87409335 -0.038462669 0.034777932
0.88663352 -0.038078547 0.037089612
0.89468527 -0.038966071 0.034093615
0.90505254 -0.038146727 0.035075329
0.87937152 -0.10353258 0.040329196
0.84526581 -0.092092797 0.046121757
0.85541058 -0.094109431 0.0472214
0.86571932 -0.093554556 0.04594427
0.87469059 -0.093626171 0.045626163
0.88505691 -0.092164166 0.044712909
0.89506459 -0.092793196 0.044912007
0.90463662 -0.09268485 0.045212142
0.91036797 -0.093457192 0.040254056
0.82791793 -0.085136779 0.049907718
0.83478117 -0.082006812 0.044470008
0.84710824 -0.084947936 0.046812907
0.85447872 -0.084081054 0.04611155
0.86500269 -0.084675759 0.046125546
0.87431872 -0.08612182 0.044849161
0.88438404 -0.087203458 0.04371256
0.89479047 -0.087873667 0.04627813
0.90279579 -0.088275552 0.043611825
0.91596317 -0.087597027 0.046167254
0.8276394 -0.073419981 0.047789771
0.83680439 -0.074247256 0.047072545
0.8461557 -0.074745275 0.045293808
0.85576779 -0.07510037 0.045364723
0.86464804 -0.075771786 0.043158326
0.87160003 -0.079849645 0.041054577
0.82587755 -0.064695731 0.046892341
0.8370921 -0.063544028 0.045659117
0.8467654 -0.064723 0.04541897
0.85537112 -0.065171786 0.045128908
0.8626042 -0.064874172 0.042445429
0.91439152 -0.061115474 0.046066038
0.82701564 -0.055615008 0.047264837
0.83220452 -0.057276439 0.044158887
0.84599614 -0.055769566 0.04638999
0.85509121 -0.055224858 0.045828663
0.86432511 -0.05534105 0.043901999
0.87353688 -0.051973633 0.042333473
0.89375657 -0.055588245 0.04376816
0.90784359 -0.052015066 0.047180187
0.91241229 -0.05576067 0.044303197
0.83528507 -0.048752688 0.048311166
0.84669608 -0.04543934 0.047403235
0.85612148 -0.046133637 0.04703987
0.86613429 -0.044682197 0.045189682
0.87541622 -0.044241756 0.045052841
0.88525265 -0.043850873 0.04493849
0.89446181 -0.043795347 0.045617465
0.90504676 -0.045003612 0.043830577
0.91573584 -0.043459263 0.045717884
0.85556275 -0.036449254 0.046712197
0.86695117 -0.036539178 0.044102121
0.87500274 -0.038050551 0.044344027
0.88529128 -0.037776526 0.045292653
0.89504498 -0.03737922 0.044473708
0.90464664 -0.038549997 0.045172542
0.91535383 -0.038024545 0.047670722
0.85388637 -0.10033589 0.055741139
0.92276835 -0.1019115 0.052184012
0.82561523 -0.092424072 0.056000877
0.83660811 -0.093908578 0.05516047
0.84477663 -0.093040049 0.056953069
0.85498828 -0.092983514 0.055870175
0.86547655 -0.094173476 0.056205302
0.87499028 -0.094000094 0.05450983
0.88449597 -0.093613818 0.054785766
0.8952688 -0.092080884 0.054571539
0.90429306 -0.090953372 0.054362334
0.82352054 -0.083536707 0.054790001
0.8364678 -0.08411862 0.056829464
0.84520143 -0.084564276 0.05707093
0.85514295 -0.085625246 0.054700289
0.86454618 -0.087772176 0.053604372
0.87530446 -0.085983448 0.056584816
0.88410062 -0.088731781 0.053262044
0.89420116 -0.087132812 0.056277059
0.90725917 -0.087619111 0.056635976
0.91414309 -0.085462391 0.055127777
0.92140752 -0.082680412 0.050571695
0.81920397 -0.072931282 0.05011918
0.8287515 -0.075260237 0.052480858
0.83620375 -0.074801825 0.055570543
0.84479302 -0.075572267 0.05399273
0.85218775 -0.075803354 0.051492158
0.89957911 -0.071157597 0.059426721
0.90461349 -0.074339077 0.059067935
0.91936737 -0.076810427 0.055468369
0.92489499 -0.07465262 0.05284879
0.82710838 -0.063290678 0.05255748
0.83605868 -0.064535521 0.055405922
0.84444267 -0.064215712 0.053557817
0.85282302 -0.063447677 0.050230086
0.8978681 -0.064339593 0.057942577
0.9043805 -0.062927395 0.056651376
0.91633558 -0.06353078 0.057015032
0.92518872 -0.064588673 0.054480333
0.82608432 -0.055649281 0.053954668
0.83561015 -0.055480115 0.056179278
0.84471345 -0.054370582 0.055067014
0.85345101 -0.054636136 0.051986907
0.86060584 -0.050954953 0.051882014
0.89702207 -0.054155424 0.056482051
0.90562713 -0.054621167 0.054295696
0.91561818 -0.054622218 0.055784322
0.92349446 -0.054991446 0.053524051
0.82681066 -0.04627927 0.056963947
0.83654088 -0.047203422 0.056201577
0.84559131 -0.045518003 0.056453403
0.85507047 -0.04456142 0.054761544
0.86434788 -0.044189293 0.054062042
0.87491012 -0.042477094 0.054694939
0.88438618 -0.042885497 0.055484783
0.89555448 -0.044948921 0.055124726
0.9049648 -0.04393854 0.055373874
0.91473728 -0.046307802 0.054596685
0.83963132 -0.035435796 0.057807282
0.84447742 -0.03820473 0.055694234
0.85690331 -0.037341926 0.057259262
0.8656354 -0.03761927 0.055261955
0.87553072 -0.035692353 0.055572197
0.88532156 -0.036205698 0.055322487
0.89458698 -0.038342938 0.054571066
0.90120572 -0.038634226 0.051686823
0.83341432 -0.10436473 0.067938946
0.84685451 -0.10128839 0.066987462
0.8616637 -0.10005838 0.064059079
0.8867029 -0.10112393 0.064422056
0.93752527 -0.10566999 0.064366154
0.82891309 -0.096350282 0.060978156
0.83841473 -0.090824358 0.065417983
0.84539002 -0.094104826 0.065035693
0.85515428 -0.093887523 0.065570414
0.86472791 -0.095661484 0.065446645
0.87471634 -0.095029145 0.065131418
0.88398445 -0.093792647 0.063832499
0.89358693 -0.091929585 0.064271368
0.90255171 -0.09021686 0.061669141
0.83753556 -0.088936448 0.061735913
0.84455943 -0.087149262 0.061431475
0.85341161 -0.087659836 0.061054692
0.87427616 -0.087851845 0.065036751
0.88565356 -0.085767135 0.064756036
0.89549315 -0.085530311 0.065444306
0.90365863 -0.085914075 0.065798312
0.91268295 -0.083624505 0.062061429
0.88739789 -0.073899157 0.067336477
0.8965168 -0.076174051 0.065819368
0.90560657 -0.074548349 0.06579037
0.9145481 -0.074884951 0.064352021
0.88811934 -0.063009046 0.065946594
0.89400595 -0.061260238 0.067196727
0.90393883 -0.065431684 0.064672217
0.91640186 -0.064594001 0.064159356
0.92116678 -0.066941224 0.061006594
0.83657992 -0.052185297 0.060932949
0.8413198 -0.051480908 0.06207893
0.88608748 -0.052502684 0.065581277
0.89640552 -0.054727174 0.065302193
0.90475655 -0.055034317 0.065314002
0.91409755 -0.055884674 0.063449711
0.92249024 -0.055634797 0.063480794
0.83689082 -0.045879111 0.061817661
0.84418172 -0.043522727 0.064354196
0.85475022 -0.042362493 0.063467689
0.86521858 -0.041726053 0.064408436
0.87462044 -0.043111913 0.065663785
0.88491505 -0.044343423 0.065134078
0.89500123 -0.044673856 0.064725734
0.90463489 -0.046281472 0.065534383
0.91437519 -0.049463958 0.060900033
0.83889151 -0.036769789 0.064268969
0.84523869 -0.037106536 0.066264875
0.85427791 -0.037250571 0.06526418
0.86488521 -0.036739755 0.065840639
0.87495756 -0.037272666 0.064816572
0.88456464 -0.037399027 0.064787537
0.89263821 -0.038095474 0.064527832
0.90184963 -0.039652109 0.063433915
0.85693502 -0.028753161 0.06855882
0.88278693 -0.027090609 0.061759867
0.83763248 -0.10264961 0.071678445
0.84836125 -0.10052359 0.073342919
0.8560096 -0.10168298 0.075619817
0.86774558 -0.10039677 0.075846709
0.8486681 -0.096641958 0.072277948
0.85506058 -0.097003073 0.074476294
0.86525327 -0.096388869 0.074261554
0.8752237 -0.094888777 0.075064197
0.8845948 -0.092589706 0.074533954
0.89351863 -0.091043077 0.071911044
0.85943437 -0.089354813 0.07341639
0.86641216 -0.088643037 0.075128913
0.87353206 -0.08677385 0.075618275
0.88492894 -0.086318061 0.075272433
0.89466131 -0.084870853 0.076061271
0.90251249 -0.082853347 0.073488131
0.91170835 -0.082376659 0.072485775
0.87679267 -0.075603575 0.078648128
0.88510668 -0.075495616 0.076174155
0.89432007 -0.075636066 0.075884052
0.90322495 -0.075144514 0.07693278
0.91178834 -0.073888332 0.070121706
0.87736112 -0.062792853 0.078988798
0.88548052 -0.064147994 0.076230779
0.89424723 -0.065799259 0.075636119
0.90521622 -0.064614251 0.075565219
0.91076946 -0.064081185 0.071236253
0.87662321 -0.052849621 0.075636566
0.88707328 -0.056717888 0.076997399
0.89502329 -0.054618515 0.0746824
0.903871 -0.055330999 0.074713461
0.84751767 -0.040423725 0.072103061
0.85554934 -0.040696271 0.073328219
0.86579704 -0.042778637 0.075485863
0.87549829 -0.043559324 0.07494507
0.88518614 -0.045632266 0.075801559
0.89435935 -0.044881132 0.074203186
0.90155488 -0.047377244 0.071503125
0.84729648 -0.036518633 0.073209606
0.85506439 -0.035552446 0.075379059
0.86390513 -0.036489625 0.074231885
0.8745268 -0.037532382 0.074958965
0.88347596 -0.038410522 0.074363187
0.89083564 -0.038122758 0.071213111
0.84806836 -0.027625084 0.073495507
0.85385972 -0.026077256 0.075314716
0.84585494 -0.10099009 0.083714627
0.85778022 -0.10323098 0.083628632
0.86152565 -0.10206229 0.082834139
0.84805536 -0.099250481 0.089159526
0.85559756 -0.09469898 0.083131291
0.86525142 -0.096429333 0.085505106
0.87466031 -0.09361808 0.0839395
0.88336188 -0.092254251 0.083195984
0.86488676 -0.085865766 0.086298421
0.87637579 -0.087223545 0.085300788
0.88430262 -0.085717663 0.085079312
0.89273769 -0.082643203 0.082831897
0.87441158 -0.075564601 0.085917592
0.8861804 -0.074996203 0.08513093
0.89467651 -0.074847117 0.084056377
0.90177006 -0.073408514 0.081189379
0.86868185 -0.062389188 0.089562006
0.87514019 -0.061663907 0.085532106
0.88521308 -0.065081619 0.085035622
0.89611584 -0.06479907 0.084662817
0.90274304 -0.064237587 0.082222678
0.86733156 -0.052847695 0.084891081
0.87677741 -0.055401359 0.086717911
0.88601369 -0.054646417 0.08583045
0.89302671 -0.054932714 0.084386192
0.854994 -0.042044517 0.085093513
0.86515033 -0.043746356 0.085422985
0.87499791 -0.044766795 0.086025603
0.88430059 -0.04620247 0.085641272
0.89163011 -0.04761371 0.083614603
0.84798533 -0.036730919 0.080602296
0.85586411 -0.035344828 0.082266808
0.86336589 -0.036340415 0.085754253
0.87269187 -0.038198546 0.083694674
0.88151962 -0.039260004 0.081473559
0.85904545 -0.1011775 0.093789928
0.8676064 -0.1013837 0.093268633
0.85572463 -0.097345322 0.093592979
0.86617613 -0.095149547 0.093152858
0.87287152 -0.093484528 0.093533367
0.85751772 -0.086420126 0.096266441
0.8662827 -0.085231364 0.096579976
0.87412429 -0.085143916 0.095371075
0.88353509 -0.082724765 0.093415543
0.86619186 -0.073108248 0.096544981
0.8756094 -0.074568629 0.096222915
0.8850829 -0.075050078 0.093998715
0.89054 -0.073310353 0.093962908
0.85944855 -0.062098354 0.099983253
0.86651403 -0.062650457 0.095480323
0.87605792 -0.065240048 0.094019763
0.88611859 -0.064864784 0.093718186
0.89196336 -0.065577671 0.091619588
0.85905218 -0.051705211 0.096864574
0.86666203 -0.054744732 0.096277736
0.8744188 -0.054911427 0.096617542
0.88562626 -0.055557538 0.093289316
0.89108592 -0.057223696 0.091369651
0.85701156 -0.044511139 0.093452714
0.86714309 -0.044019982 0.094580881
0.87292653 -0.044867966 0.095992841
0.88289601 -0.046997558 0.090853117
0.85599542 -0.03680766 0.090788402
0.86587811 -0.036739416 0.093170345
0.87188864 -0.037977751 0.095519237
0.87501746 -0.091380484 0.10412741
0.88886243 -0.091318518 0.10519023
0.86887181 -0.087515719 0.10158867
0.87594193 -0.084268898 0.1035831
0.88324612 -0.083088852 0.10372468
0.86852044 -0.074939601 0.10345018
0.87689751 -0.074891433 0.10376884
0.88134891 -0.074964076 0.10456362
0.8679021 -0.065066338 0.1036614
0.87572861 -0.064395703 0.1039309
0.88160115 -0.064739272 0.1049695
0.86604083 -0.055530574 0.10096629
0.8762036 -0.054957267 0.10347361
0.88089991 -0.056653243 0.10565549
0.87565547 -0.046069052 0.10137733
0.88075572 -0.046866596 0.10262418
0.88267255 -0.083364442 0.11256802
0.87870258 -0.066903234 0.11026588
0 0 0 1 0 0 0 1 0 0 0 1 0 0 0 0 0 400 1 0 0
