ply
format ascii 1.0
comment PCL generated
element vertex 1035
property float x
property float y
property float z
element camera 1
property float view_px
property float view_py
property float view_pz
property float x_axisx
property float x_axisy
property float x_axisz
property float y_axisx
property float y_axisy
property float y_axisz
property float z_axisx
property float z_axisy
property float z_axisz
property float focal
property float scalex
property float scaley
property float centerx
property float centery
property int viewportx
property int viewporty
property float k1
property float k2
end_header
1.4270933 -0.065142393 -0.41712701
1.4311202 -0.073585838 -0.40352488
1.4225813 -0.075702608 -0.39647722
1.4306333 -0.07850033 -0.39707446
0.88732755 -0.17769152 -0.0098670721
0.89960265 -0.1827935 0.0073730648
0.90309763 -0.18065441 0.012175053
0.91831678 -0.056920558 0.016938791
0.91922408 -0.043587536 0.01846765
0.91698074 -0.074428894 0.027128994
0.92467684 -0.07577914 0.024987081
0.90785176 -0.063137561 0.029858008
0.91478139 -0.065332025 0.02617321
0.92432499 -0.065272868 0.02192351
0.89713156 -0.050969899 0.02841863
0.90635324 -0.053948894 0.026658952
0.91554475 -0.055527553 0.024074417
0.92214888 -0.053108752 0.022595944
0.90454793 -0.046652433 0.02755863
0.914244 -0.044056099 0.024726328
0.92507136 -0.044087172 0.021454159
0.90599453 -0.038867705 0.029409971
0.91637188 -0.03563191 0.02610757
0.92443806 -0.034285828 0.02429338
0.91436505 -0.029554933 0.028325107
0.92659312 -0.026731785 0.027692556
0.92825699 -0.091734111 0.037844941
0.91674918 -0.083058618 0.036168668
0.92499918 -0.085834384 0.035766412
0.89965343 -0.07081151 0.03631556
0.90717775 -0.072983459 0.03617087
0.91438836 -0.075442769 0.034265887
0.89667284 -0.063955158 0.037793137
0.90591419 -0.065939516 0.034581006
0.91247207 -0.065911092 0.031567249
0.88552207 -0.052967291 0.037659358
0.89612573 -0.053747959 0.034652226
0.90482873 -0.055418365 0.034307275
0.91090649 -0.055400223 0.032091729
0.88888663 -0.046721827 0.038652968
0.89657211 -0.045513183 0.035808403
0.90452534 -0.044596765 0.034432538
0.9113791 -0.044465214 0.030955702
0.88531196 -0.039343148 0.039534003
0.89648294 -0.036834139 0.038655188
0.90529305 -0.034625933 0.035591938
0.91515058 -0.033344444 0.032219898
0.92161703 -0.033059746 0.033172648
0.90503663 -0.025922434 0.037341565
0.9158228 -0.026342778 0.035385534
0.92407322 -0.024330141 0.034021609
0.93399096 -0.021420434 0.033156823
0.92498422 -0.018881671 0.037660874
0.93546027 -0.018311851 0.036964506
0.91705739 -0.09347266 0.047240026
0.92539281 -0.093809359 0.044385117
0.93402022 -0.092634849 0.044753388
0.90530449 -0.082854949 0.046912011
0.91519684 -0.085156217 0.044163421
0.92452908 -0.088226087 0.043588601
0.89659739 -0.074658923 0.046588689
0.90445137 -0.075871862 0.042294268
0.88593918 -0.064794168 0.046977505
0.89480734 -0.065947264 0.04367812
0.90162998 -0.062124118 0.04046575
0.87731838 -0.053978503 0.045373693
0.88576013 -0.05508709 0.045806047
0.89371443 -0.053940553 0.043145794
0.9016344 -0.052801862 0.04043515
0.87740993 -0.044832397 0.047995649
0.88506848 -0.04470662 0.044874355
0.89341915 -0.043822162 0.043683052
0.90048784 -0.044282883 0.040971696
0.88585335 -0.036620412 0.0466219
0.89363724 -0.034473293 0.045029417
0.90212381 -0.034861147 0.041592654
0.88981301 -0.02173087 0.049962401
0.89594036 -0.026332246 0.046625368
0.90502375 -0.024622278 0.045239512
0.91291213 -0.022651896 0.043064382
0.92254972 -0.020712242 0.043487284
0.9051621 -0.018876702 0.047354996
0.9146294 -0.018095871 0.046109211
0.9256838 -0.016483797 0.045406833
0.93476987 -0.015235509 0.045169838
0.94506013 -0.015777564 0.045477238
0.93495321 -0.0097739398 0.04916358
0.93736023 -0.12554723 0.052334204
0.90400296 -0.09116894 0.057454191
0.91531527 -0.092686169 0.055801254
0.92512226 -0.092856228 0.054801643
0.93587065 -0.094615012 0.054932728
0.94332236 -0.095493853 0.055863202
0.88944656 -0.084194846 0.058821037
0.89628488 -0.083471276 0.056697175
0.90520293 -0.085941844 0.054524574
0.91296083 -0.088062555 0.053038199
0.92075455 -0.088668391 0.05302706
0.87727606 -0.074622571 0.057610348
0.88601649 -0.075223267 0.054704078
0.89396775 -0.076838702 0.05365533
0.87703604 -0.064572684 0.056175474
0.88436937 -0.065324813 0.05271757
0.85839462 -0.053420126 0.058982022
0.86671305 -0.051545244 0.055220176
0.87568277 -0.055177007 0.055018127
0.88419729 -0.054387022 0.051571794
0.85951257 -0.049512744 0.055938169
0.86679012 -0.046232428 0.055758212
0.87378222 -0.045211498 0.054550268
0.88327074 -0.044516273 0.05263906
0.86632198 -0.037941154 0.058533251
0.87648314 -0.035430323 0.055453446
0.8837893 -0.03401484 0.053086519
0.89422709 -0.031005625 0.052670214
0.87786663 -0.028649949 0.055535018
0.88500822 -0.026212918 0.054597177
0.89451247 -0.024082283 0.054351058
0.90185404 -0.020834465 0.053214114
0.89513284 -0.018482154 0.055595886
0.90440428 -0.016600335 0.055197913
0.91451544 -0.014845683 0.055633534
0.92480916 -0.014911257 0.054441467
0.93479651 -0.014200141 0.055931769
0.94489402 -0.015054858 0.054640356
0.91780305 -0.0091676712 0.054557979
0.88973296 -0.090151154 0.068528004
0.897304 -0.091947757 0.067098886
0.90448326 -0.09275268 0.066289112
0.91420299 -0.092401423 0.064777195
0.92558974 -0.092872001 0.064879693
0.93521571 -0.094442442 0.066205069
0.9454987 -0.094118185 0.064446695
0.87659138 -0.082433842 0.068062581
0.88580239 -0.083177797 0.064691566
0.89445943 -0.085678056 0.064664416
0.90274161 -0.088020645 0.064351611
0.9568556 -0.088394515 0.067917928
0.85555989 -0.070939451 0.067425951
0.86693865 -0.073275566 0.067393154
0.87585944 -0.074969009 0.06488882
0.88434142 -0.076731786 0.063198648
0.85543221 -0.063909888 0.064789131
0.86525697 -0.064120159 0.066360585
0.87373435 -0.064419188 0.064047754
0.85548824 -0.053971924 0.066179886
0.86388797 -0.054059036 0.065102249
0.8717072 -0.053482585 0.060864456
0.8491829 -0.044665109 0.068196081
0.85522807 -0.045370139 0.066745929
0.86346847 -0.046284154 0.064598553
0.87160277 -0.043945447 0.06209423
0.85573387 -0.034901377 0.066921748
0.86532044 -0.035012741 0.064727508
0.8747735 -0.033661272 0.061857034
0.88417941 -0.030536028 0.061663236
0.86637831 -0.025903022 0.06814079
0.87507421 -0.025985645 0.064836539
0.88544482 -0.021902699 0.06314183
0.89389658 -0.021406353 0.06075266
0.95769131 -0.021273866 0.065628499
0.8771137 -0.019597894 0.068249799
0.88561153 -0.017183904 0.066555567
0.89436197 -0.016604554 0.064701207
0.90454972 -0.014426795 0.065227352
0.91438276 -0.013797006 0.064477012
0.92477643 -0.013781643 0.065062203
0.93454188 -0.014614864 0.064886376
0.94486493 -0.016246628 0.065700851
0.95342326 -0.017293287 0.064866625
0.9150877 -0.0099908412 0.069492221
0.88496232 -0.091293238 0.075052731
0.89509535 -0.091637492 0.076062806
0.90454882 -0.091624998 0.074351728
0.91508549 -0.091931313 0.0750928
0.92536086 -0.093555294 0.075017676
0.93388003 -0.092560284 0.074552149
0.94152325 -0.09218657 0.074009247
0.95392191 -0.090443611 0.07367453
0.86885756 -0.081937589 0.077067673
0.87547475 -0.085060664 0.077069648
0.88512307 -0.086587176 0.074295767
0.89401954 -0.088005707 0.073722817
0.90574449 -0.089213349 0.076620497
0.92869025 -0.089317381 0.078179255
0.93491638 -0.089363113 0.078384638
0.94574845 -0.088013425 0.075987995
0.95525628 -0.085898325 0.075455323
0.85649502 -0.073893331 0.077047959
0.86516839 -0.075664625 0.07550247
0.87238234 -0.07695248 0.073957235
0.88052899 -0.079391539 0.07355766
0.95828271 -0.07801792 0.079535604
0.96589088 -0.075013623 0.077781849
0.84679693 -0.062708646 0.077139512
0.85406893 -0.065828793 0.075780801
0.86252713 -0.064205348 0.073925249
0.83502281 -0.054428753 0.076557033
0.84604484 -0.055269871 0.07659962
0.85416979 -0.054996777 0.073428199
0.83481228 -0.045933574 0.077250503
0.84529066 -0.04430449 0.075215921
0.85403919 -0.045852646 0.072438553
0.8371464 -0.036599122 0.077550493
0.84649307 -0.034767952 0.074550174
0.85342354 -0.033642657 0.075468682
0.86422426 -0.031837948 0.07172282
0.95760036 -0.032465309 0.079955101
0.96455413 -0.03415503 0.077045165
0.84783709 -0.028037265 0.077590138
0.8563118 -0.025819583 0.07598044
0.86516309 -0.023891205 0.073381692
0.87511367 -0.02189314 0.071135744
0.88676822 -0.021306423 0.073981747
0.93626422 -0.020343125 0.078568637
0.94561684 -0.022323208 0.076736405
0.95432997 -0.023825442 0.075725541
0.96283883 -0.026085591 0.0731152
0.85885507 -0.01866453 0.079129517
0.8638956 -0.018020127 0.077382147
0.87623644 -0.017327594 0.074833773
0.88559085 -0.014199095 0.075383015
0.89545649 -0.013616083 0.074408785
0.90577334 -0.013400251 0.075642422
0.91537893 -0.013397748 0.074211515
0.92521268 -0.014609714 0.07628195
0.93479449 -0.016518442 0.075266257
0.94427603 -0.017779632 0.074194759
0.95299876 -0.018514926 0.072838396
0.89681679 -0.008898735 0.079574764
0.90449929 -0.0096085668 0.072649062
0.86730331 -0.091815129 0.087439358
0.87441808 -0.091482021 0.085939117
0.88452834 -0.0927127 0.083753727
0.89571404 -0.091360651 0.08387769
0.9049806 -0.091936968 0.085358322
0.91506791 -0.09222161 0.084509119
0.92378604 -0.091481864 0.085006841
0.93522084 -0.092532337 0.083244696
0.8560856 -0.082417302 0.088393502
0.86591601 -0.083497286 0.085485257
0.87432259 -0.086038858 0.085696489
0.88496935 -0.088002481 0.085531145
0.89381385 -0.089525938 0.0864475
0.90601617 -0.089138657 0.087067753
0.9163788 -0.088627517 0.088391028
0.92660391 -0.087941118 0.0848708
0.93527514 -0.086536996 0.085196935
0.94544989 -0.083661526 0.086503036
0.95199811 -0.082588002 0.083034255
0.84610337 -0.07298018 0.086666144
0.85571808 -0.076289356 0.084083736
0.86335868 -0.078350708 0.084011674
0.94629973 -0.078882314 0.088398568
0.95619607 -0.074444562 0.0865753
0.96204567 -0.072997771 0.081900358
0.83761442 -0.063977212 0.08697591
0.84591132 -0.066126727 0.083654448
0.8525824 -0.066461436 0.08172372
0.95756853 -0.06587474 0.088150427
0.96570247 -0.063678041 0.083817475
0.81841445 -0.052491486 0.087277383
0.82670593 -0.054792881 0.084704854
0.83583313 -0.055221096 0.085059524
0.8447997 -0.054742694 0.082726054
0.95860243 -0.054008543 0.088748492
0.96547526 -0.053890102 0.084194623
0.82496393 -0.044518583 0.086957134
0.83334774 -0.044540986 0.084949933
0.84251988 -0.04482596 0.083853349
0.95716399 -0.04521567 0.087930523
0.96412253 -0.045335744 0.08430215
0.82545322 -0.034867667 0.086486414
0.83663726 -0.035133027 0.084500939
0.84353501 -0.034948613 0.083431877
0.85306758 -0.030906199 0.083161138
0.94912797 -0.032008607 0.086887665
0.95583677 -0.034464583 0.085771792
0.96254981 -0.037110142 0.082706533
0.82456619 -0.029592425 0.084825978
0.83640307 -0.025291264 0.087308683
0.84580314 -0.024513111 0.085429214
0.85388207 -0.022269003 0.082318723
0.86405593 -0.020762745 0.082523614
0.92918384 -0.020490393 0.086371288
0.93628627 -0.022849662 0.08710707
0.94458562 -0.025464945 0.085684121
0.95478803 -0.026566189 0.082043491
0.96151567 -0.029248625 0.080522329
0.84717584 -0.017179951 0.084902078
0.85538399 -0.016290324 0.086338922
0.86512715 -0.015267657 0.084972888
0.87563121 -0.013487157 0.085489452
0.88514876 -0.012967628 0.085236795
0.89481401 -0.012865672 0.083865382
0.90447682 -0.013402448 0.085129023
0.9145999 -0.014597049 0.08557865
0.92499834 -0.016502526 0.083861202
0.93358809 -0.01812412 0.083990008
0.94155711 -0.018530339 0.080277622
0.86723155 -0.0079163313 0.088555545
0.87608081 -0.0082772076 0.085286833
0.88306594 -0.0087429583 0.08465445
0.89531916 -0.0097939819 0.085930496
0.86609936 -0.091483176 0.095684953
0.87657744 -0.092412472 0.093144059
0.88672888 -0.091608301 0.095180325
0.89628476 -0.091552518 0.094008341
0.90298474 -0.09187068 0.094576001
0.91097522 -0.09425053 0.092485905
0.92210013 -0.091022648 0.093721271
0.84673131 -0.082633741 0.097179212
0.85585141 -0.084228605 0.095823087
0.86461449 -0.086179063 0.094971754
0.87506741 -0.087153666 0.094130322
0.88454133 -0.088748135 0.095249996
0.89501202 -0.089016192 0.095385045
0.9041599 -0.088277675 0.096641764
0.91550636 -0.087078258 0.095258795
0.9236623 -0.085437439 0.094646782
0.93300301 -0.083700664 0.09340018
0.94210279 -0.081353575 0.091369897
0.95180988 -0.081329942 0.090914369
0.82666534 -0.071085811 0.098134793
0.83607 -0.073913813 0.096175693
0.84443516 -0.076377228 0.094126649
0.85164344 -0.078540206 0.092694446
0.92700094 -0.078493178 0.097441524
0.93533587 -0.075956032 0.096678749
0.94370431 -0.074563585 0.09358798
0.95247108 -0.074828364 0.091950983
0.81635213 -0.067953825 0.099171728
0.82766813 -0.064075515 0.096182004
0.83612478 -0.066129774 0.093723826
0.84271371 -0.068643197 0.092540517
0.93842506 -0.06755323 0.098216593
0.94472724 -0.064530306 0.096882097
0.95362854 -0.06410566 0.091724977
0.80204421 -0.051943779 0.097773641
0.81492692 -0.054496743 0.09594515
0.82468528 -0.055446457 0.095160984
0.83284026 -0.053688359 0.091075808
0.94466931 -0.054384947 0.098068237
0.95435625 -0.055324677 0.092178069
0.96001077 -0.056032464 0.092439651
0.805686 -0.045913175 0.096188992
0.81530023 -0.045109298 0.095193125
0.8238256 -0.046159148 0.094053455
0.83402324 -0.042366523 0.091393292
0.93722361 -0.044416755 0.098709643
0.94568145 -0.043789651 0.096371293
0.95253563 -0.04610813 0.092255503
0.96071398 -0.049334303 0.092635453
0.80630994 -0.035459399 0.099920847
0.81593609 -0.036731709 0.095384784
0.82560921 -0.034599636 0.094135799
0.83433938 -0.034114696 0.09337198
0.93695629 -0.033544883 0.097859941
0.94405597 -0.035132252 0.094460391
0.9537307 -0.037428372 0.091248579
0.81710738 -0.028149208 0.097415738
0.82597381 -0.025132339 0.096597865
0.83415031 -0.023685161 0.09473595
0.84418309 -0.021826532 0.093105093
0.8530063 -0.021003881 0.09208934
0.91647744 -0.021119766 0.097637504
0.92517561 -0.023195483 0.095537424
0.93429786 -0.026695114 0.094664715
0.94247496 -0.02819521 0.091989078
0.82454944 -0.018201703 0.097590901
0.83599681 -0.017918171 0.097682551
0.84533083 -0.016505517 0.094344825
0.85490614 -0.013539374 0.095278643
0.86519563 -0.012907079 0.093877472
0.87493891 -0.011802877 0.09531685
0.8850922 -0.012006347 0.095653102
0.89519483 -0.013116973 0.095222868
0.90535992 -0.014800831 0.094683975
0.915066 -0.017295981 0.095103763
0.92264915 -0.017483881 0.093059614
0.93162012 -0.019959599 0.092575938
0.85284233 -0.0089413226 0.094610192
0.86305553 -0.0090081198 0.09284886
0.87458384 -0.0077477931 0.094399586
0.88500357 -0.0092929108 0.094079889
0.89426768 -0.008610338 0.093857408
0.85796332 -0.091050848 0.10487121
0.86269659 -0.090920739 0.1043326
0.87627161 -0.092398003 0.10861945
0.89668053 -0.091520868 0.10387816
0.90134841 -0.090238303 0.1013028
0.82829416 -0.081930853 0.10884626
0.83638763 -0.082295224 0.10643372
0.8451153 -0.083531886 0.10580906
0.85449696 -0.08599817 0.10562488
0.86399877 -0.08708664 0.10505636
0.87526834 -0.087976128 0.1048278
0.88439184 -0.087742701 0.10458077
0.89426219 -0.087538704 0.10396507
0.90499192 -0.084529229 0.10542998
0.91458404 -0.082329325 0.10375929
0.92328244 -0.08208812 0.10378401
0.93101001 -0.080148548 0.10321546
0.81970596 -0.073779702 0.10708556
0.82637274 -0.074476965 0.10677218
0.83530807 -0.076830812 0.10352452
0.84314346 -0.077212699 0.10179916
0.90609324 -0.079324618 0.10917374
0.91589934 -0.077321544 0.10819982
0.92400157 -0.074629627 0.10568974
0.93658221 -0.074153721 0.10171282
0.98914099 -0.079173297 0.1092805
0.8044436 -0.063739493 0.10951866
0.81602502 -0.065351754 0.10533693
0.82419151 -0.067755386 0.10334511
0.92461491 -0.064621672 0.10919336
0.93384117 -0.065417044 0.1048739
0.94088948 -0.06363713 0.10113883
0.79002202 -0.053708196 0.10723797
0.8048557 -0.054993898 0.10605774
0.81334484 -0.055465516 0.10493872
0.82340837 -0.058860499 0.10217011
0.92592847 -0.051302433 0.10903084
0.93520331 -0.054909155 0.10522558
0.94245756 -0.053274076 0.10137592
0.78927636 -0.048575938 0.10658707
0.79532689 -0.045573685 0.10647616
0.80473453 -0.044632673 0.10516002
0.81389755 -0.045858346 0.10426365
0.82163703 -0.045218796 0.10045993
0.9273721 -0.042739309 0.10832565
0.93503022 -0.044776835 0.10431169
0.94198346 -0.046337456 0.10120658
0.7972998 -0.035876215 0.10863223
0.80557942 -0.036083497 0.10492433
0.81393355 -0.03336722 0.10401576
0.82463026 -0.031761192 0.10089496
0.91756147 -0.031868458 0.10862543
0.92567235 -0.034169618 0.10667767
0.93312913 -0.036288247 0.10375701
0.941158 -0.038254917 0.10071668
0.80712789 -0.026542565 0.10637327
0.81604487 -0.024767604 0.10461859
0.82493597 -0.023278512 0.10347936
0.83346498 -0.026189119 0.10147628
0.90612537 -0.022145778 0.10706123
0.91455573 -0.025574198 0.10693239
0.9241991 -0.026987718 0.1026001
0.93294317 -0.027933076 0.10168435
0.8176235 -0.01899451 0.10653996
0.82544434 -0.017407484 0.1059164
0.83615941 -0.014577922 0.10402729
0.84441555 -0.013567973 0.10420845
0.85505569 -0.011756978 0.10515995
0.86557478 -0.011676615 0.1042579
0.87403154 -0.01210676 0.10522483
0.88450313 -0.01297012 0.10422599
0.89477777 -0.015256785 0.10503481
0.9048329 -0.017317986 0.10405204
0.91314232 -0.017203389 0.1032389
0.92577398 -0.019607663 0.10015539
0.93767512 -0.017828345 0.10077319
0.84621197 -0.009327109 0.10648611
0.85598367 -0.0084122159 0.10524686
0.86439335 -0.0091691837 0.10251515
0.87330067 -0.0094287042 0.10514077
0.84679586 -0.090416074 0.11335086
0.85541624 -0.091019481 0.11407077
0.86849403 -0.090713501 0.1145013
0.87400401 -0.091515809 0.11424454
0.88443422 -0.090506427 0.11231186
0.81795132 -0.080613382 0.1196726
0.82572734 -0.082749277 0.11644301
0.83577895 -0.083994038 0.11620396
0.84435421 -0.085054636 0.11435962
0.85441327 -0.085839286 0.11408368
0.86528718 -0.087034747 0.11539088
0.87562639 -0.086197734 0.11463216
0.88550085 -0.08611244 0.11466262
0.89410615 -0.083236746 0.11477239
0.90205467 -0.083065644 0.11411781
0.91040528 -0.081463814 0.11248177
0.80902064 -0.073319823 0.1182154
0.81529927 -0.075040691 0.11642471
0.82446909 -0.077174038 0.11351051
0.83126247 -0.076912493 0.11208295
0.89703417 -0.077377632 0.11784688
0.90584582 -0.076501079 0.11420035
0.91374052 -0.072198883 0.11509712
0.92232275 -0.072493941 0.11434734
0.78821802 -0.063590772 0.11243176
0.79799443 -0.063345641 0.11631554
0.8053261 -0.065680631 0.11589248
0.81410378 -0.066176429 0.11256392
0.90892434 -0.069031164 0.11815935
0.91504914 -0.065222412 0.11643023
0.92215329 -0.064244963 0.11368062
0.93554252 -0.062911548 0.11253693
0.77667344 -0.053487062 0.11973827
0.78706467 -0.055189036 0.1139966
0.79613262 -0.056316514 0.11631031
0.80439436 -0.057248209 0.11409707
0.81110442 -0.055477455 0.11098513
0.91668278 -0.055094488 0.11765058
0.92417717 -0.055167019 0.11350301
0.93190461 -0.051782325 0.11159217
0.77754629 -0.044878848 0.11772548
0.78494829 -0.045946948 0.11517236
0.79479545 -0.045437247 0.11462423
0.80320692 -0.045205239 0.11366189
0.81087136 -0.044969924 0.11002851
0.91624612 -0.044051934 0.11712784
0.92400604 -0.044596199 0.11316856
0.785577 -0.035080485 0.11609364
0.7958343 -0.035276487 0.11532789
0.80443567 -0.0357133 0.11324856
0.81255209 -0.033629715 0.11084011
0.90735608 -0.032947365 0.11785021
0.91513908 -0.035130009 0.11483911
0.92247725 -0.036007121 0.11127239
0.78483921 -0.029799417 0.11907831
0.79468876 -0.025600135 0.11642668
0.80446577 -0.02445785 0.11457331
0.8139801 -0.023070509 0.11322816
0.823906 -0.020108363 0.1110253
0.88704318 -0.021144032 0.11773163
0.89541703 -0.022081284 0.11686642
0.904172 -0.025429204 0.11458755
0.91408414 -0.027992802 0.11221413
0.7993831 -0.017731324 0.11528486
0.80548656 -0.018664306 0.11638287
0.8143419 -0.015504277 0.11555824
0.82478869 -0.013486051 0.11467332
0.83536464 -0.011601248 0.1152202
0.84469843 -0.011253254 0.11407398
0.85420555 -0.011309174 0.11500544
0.86528653 -0.012194397 0.11507852
0.87535679 -0.013913695 0.11587223
0.88465643 -0.015882734 0.11523876
0.89353436 -0.017289219 0.11446693
0.90200233 -0.016877463 0.11218538
0.8090415 -0.0030877555 0.11848699
0.81248212 -0.008872509 0.11994308
0.82520926 -0.0082330648 0.11743967
0.83431244 -0.0086285071 0.1150967
0.84506166 -0.0083567342 0.11427029
0.85526586 -0.0076448582 0.11542527
0.86320978 -0.0089016808 0.11617873
0.87341332 -0.0091332644 0.11190069
0.8138327 0.0015402926 0.11885415
0.84624338 0.006169036 0.11396825
0.85306913 0.00074906647 0.11510718
0.83708471 -0.090389006 0.12135678
0.80689174 -0.082109332 0.12834966
0.8134827 -0.082404144 0.12704204
0.82526231 -0.083914183 0.1258513
0.83442467 -0.083590753 0.12509246
0.84459114 -0.08586286 0.1241827
0.85527402 -0.086320333 0.12566999
0.86583012 -0.084564984 0.12465578
0.87608564 -0.085063927 0.12362058
0.88397926 -0.081978135 0.12283366
0.89154166 -0.081266977 0.12295854
0.78957331 -0.073730305 0.129683
0.79635817 -0.072137699 0.12713814
0.80536169 -0.074333034 0.12545949
0.81493503 -0.077252232 0.12388813
0.82266694 -0.079671383 0.12479062
0.8763836 -0.079156518 0.12764004
0.8857649 -0.077083349 0.1267779
0.89379948 -0.07557483 0.12381996
0.90323353 -0.074035086 0.12160342
0.77432686 -0.062453717 0.12706268
0.78540295 -0.064018443 0.1245525
0.79461938 -0.066485673 0.12539263
0.80424213 -0.067268744 0.12208925
0.8973698 -0.066340312 0.12771662
0.90421337 -0.064826295 0.12436955
0.91100585 -0.063965149 0.12116218
0.7667321 -0.054640271 0.1257011
0.77475983 -0.054631498 0.12584049
0.78690922 -0.054768462 0.12524354
0.79515392 -0.057775151 0.12223494
0.89749175 -0.054132897 0.12987572
0.90522742 -0.054757386 0.12599283
0.91291386 -0.05357866 0.12144022
0.76765633 -0.044524699 0.12783982
0.77415687 -0.044226486 0.12479138
0.78500545 -0.044566073 0.1254697
0.79355991 -0.046122953 0.12262282
0.89711559 -0.044334996 0.12910552
0.90496969 -0.044685096 0.12517664
0.91211349 -0.043333653 0.1216381
0.76890284 -0.036026597 0.12988681
0.77552027 -0.034572832 0.12562379
0.78567058 -0.034572572 0.12458099
0.79440641 -0.035738036 0.12183568
0.88821077 -0.033161491 0.12876844
0.89699674 -0.033960428 0.12661441
0.90356451 -0.035983387 0.1228315
0.91045547 -0.036034629 0.12006593
0.77811033 -0.027564526 0.12693538
0.78519803 -0.024181502 0.12486536
0.79430646 -0.023536332 0.12392471
0.80500394 -0.024686432 0.12249536
0.87456292 -0.021070689 0.12888993
0.88627028 -0.023605229 0.12511078
0.89405072 -0.027036974 0.12441164
0.90401947 -0.028328672 0.12125117
0.78768778 -0.017046213 0.12760423
0.7959286 -0.016316691 0.12639439
0.80587107 -0.014863512 0.12460474
0.81578559 -0.012385305 0.12494757
0.82457554 -0.011508639 0.12536086
0.8345561 -0.010765913 0.12536757
0.84533268 -0.011360749 0.12523177
0.85511231 -0.012441193 0.12537198
0.86525071 -0.013760745 0.125798
0.87532926 -0.016313514 0.12529057
0.88297904 -0.017937433 0.12526853
0.89244503 -0.017504215 0.12193201
0.79432899 -0.0091968477 0.12823872
0.80629921 -0.0091359122 0.12556143
0.81625247 -0.006262396 0.12519106
0.8262527 -0.0081445165 0.12545303
0.83601534 -0.0084479125 0.12601133
0.84579927 -0.0087451758 0.12460174
0.85213012 -0.008992089 0.1255829
0.86305577 -0.0057852482 0.12433767
0.79773891 -0.081205904 0.13607502
0.8058483 -0.082858257 0.13637997
0.81502479 -0.082710072 0.13479623
0.82561624 -0.083596878 0.13526903
0.83405352 -0.084231615 0.13500588
0.84515715 -0.084947929 0.1354849
0.85446709 -0.083094016 0.13550064
0.86480474 -0.082770832 0.13271673
0.87460804 -0.080991842 0.13273765
0.77911025 -0.071278483 0.13882631
0.78735274 -0.072905853 0.13531674
0.79566973 -0.074964806 0.13562872
0.80473483 -0.077500015 0.13409917
0.8145768 -0.079123355 0.13383402
0.86619091 -0.077015191 0.13720658
0.87537414 -0.075230077 0.13595065
0.88233376 -0.073588021 0.13344942
0.89106375 -0.072436109 0.13416071
0.75944519 -0.061849654 0.13651596
0.76612002 -0.062845752 0.13716458
0.77744508 -0.064734221 0.13511196
0.78482419 -0.066055797 0.13513976
0.7923342 -0.067593828 0.13183899
0.87776411 -0.069303542 0.13682142
0.88563794 -0.064467847 0.13614687
0.89295572 -0.064547144 0.13122675
0.76630628 -0.054226842 0.13689481
0.77531332 -0.054434713 0.133893
0.78323865 -0.055885095 0.13483766
0.88556701 -0.054344013 0.13887763
0.89409637 -0.055323724 0.13338207
0.90007287 -0.054807618 0.13227159
0.76661098 -0.044722468 0.13558634
0.77439988 -0.045375947 0.13421996
0.78277677 -0.046020739 0.13600619
0.88655663 -0.044222143 0.13771415
0.89491874 -0.045044117 0.13384297
0.76828152 -0.035311747 0.13483492
0.77266628 -0.033775207 0.13620682
0.78341436 -0.035026103 0.13513049
0.87859809 -0.03681678 0.13954782
0.88507062 -0.034097087 0.1352361
0.89226407 -0.036269825 0.13205387
0.90182924 -0.036655627 0.13500144
0.76935673 -0.029144481 0.13568307
0.77574134 -0.025110729 0.13593541
0.78492254 -0.024942951 0.13345473
0.79182196 -0.024661897 0.13356389
0.86770689 -0.022002075 0.13617629
0.87498999 -0.025243415 0.13594259
0.8828072 -0.026689652 0.13246344
0.8907119 -0.029459078 0.13161367
0.77851558 -0.017257944 0.1345453
0.78491867 -0.016591687 0.13489619
0.79476452 -0.013755925 0.13604172
0.80472177 -0.011755302 0.13412195
0.81504536 -0.011121488 0.13334535
0.82532519 -0.010842402 0.13512141
0.83487386 -0.011678872 0.1363816
0.8446961 -0.012201784 0.13559395
0.85475606 -0.014742058 0.13567778
0.86441338 -0.016116049 0.13309945
0.87311685 -0.017722016 0.13279445
0.88203752 -0.019033611 0.13211116
0.78874022 -0.0095585287 0.13476044
0.7947228 -0.0087905964 0.13701598
0.80432194 -0.0075627649 0.13659045
0.81471002 -0.0081012538 0.13646974
0.82474589 -0.0075634434 0.1336966
0.83433384 -0.0085181436 0.13452062
0.84308833 -0.0090024322 0.13412616
0.86325586 0.0011153147 0.13040215
0.78580934 -0.080655418 0.14719874
0.79744267 -0.082466632 0.14729738
0.80558813 -0.082480736 0.14518858
0.81552422 -0.082189113 0.14488997
0.825149 -0.08302208 0.14471284
0.83471823 -0.083552428 0.1441754
0.84432232 -0.081894726 0.14392729
0.85659105 -0.081259094 0.14191668
0.86030149 -0.080661252 0.14230442
0.76477635 -0.070254743 0.14471789
0.77884692 -0.072357289 0.14678645
0.78561759 -0.073984168 0.14524771
0.79379416 -0.076396391 0.14377615
0.80313015 -0.078580253 0.1436381
0.84496695 -0.078584388 0.14726903
0.85558212 -0.075768478 0.14564866
0.86578119 -0.073597565 0.14443442
0.87173748 -0.074650869 0.14299883
0.88340145 -0.070520498 0.1423796
0.75847566 -0.066048682 0.14161943
0.76621979 -0.064580269 0.14548944
0.77730846 -0.064292043 0.14582203
0.78395927 -0.065146431 0.14505762
0.86570954 -0.065397635 0.14740442
0.8738116 -0.06468454 0.14436263
0.8827464 -0.065548837 0.14192627
0.89164853 -0.063897043 0.14057231
0.76662123 -0.054734983 0.14442499
0.77570593 -0.054793634 0.1445311
0.78235453 -0.055571783 0.14567733
0.86847878 -0.056740809 0.1487036
0.87501097 -0.05530614 0.14630321
0.88291389 -0.053036164 0.14274016
0.89080763 -0.051275656 0.14014173
0.76709026 -0.044173341 0.14469446
0.77435946 -0.043954685 0.14513749
0.78175163 -0.044676647 0.14513326
0.86562693 -0.046361864 0.14947563
0.87527299 -0.044416904 0.14616095
0.88271278 -0.044085585 0.14242661
0.76793218 -0.036798425 0.144301
0.77426428 -0.034563277 0.14531548
0.7818951 -0.03549799 0.14572476
0.8662836 -0.033812519 0.14779675
0.8745634 -0.035392657 0.14440013
0.8825205 -0.037606444 0.14187981
0.76794827 -0.026892543 0.14375585
0.77587247 -0.025193071 0.144784
0.78412783 -0.023919137 0.14501862
0.8497088 -0.02143003 0.14957587
0.85548085 -0.022755507 0.14755085
0.86449462 -0.024976321 0.14361899
0.87316275 -0.026330441 0.14146686
0.77837867 -0.017385297 0.1435743
0.78409749 -0.015624707 0.14564243
0.79322338 -0.012102606 0.14526938
0.80562234 -0.011115424 0.1422191
0.81566685 -0.010982427 0.14582744
0.82569683 -0.011334294 0.14428712
0.83583146 -0.013069199 0.14496155
0.84541982 -0.015209958 0.14493079
0.85509348 -0.016783606 0.14331611
0.86252296 -0.016587228 0.14201772
0.78817129 -0.008820706 0.14369404
0.79612398 -0.0084277913 0.14553806
0.80458319 -0.0082476819 0.14543584
0.81531388 -0.0080796918 0.14502208
0.82475692 -0.0084538162 0.14465946
0.83220744 -0.0090944171 0.14256769
0.85074437 -0.0092487335 0.14054474
0.79580086 -0.083310954 0.1536231
0.80501419 -0.082241006 0.15516877
0.81466639 -0.082352005 0.15336116
0.82441652 -0.083137482 0.15348102
0.83499444 -0.081582159 0.15368947
0.84104413 -0.082133643 0.15258791
0.76835126 -0.072624803 0.15802288
0.77091187 -0.071361117 0.15350203
0.78547782 -0.073455401 0.1551519
0.79476392 -0.076720729 0.1551186
0.80372018 -0.078506336 0.15541242
0.81518888 -0.07928881 0.15751536
0.82471859 -0.079084687 0.15465966
0.8350113 -0.07659822 0.1557911
0.84553951 -0.073927842 0.15512493
0.85419172 -0.074360728 0.15226002
0.86036402 -0.072452754 0.15128389
0.76709503 -0.065235049 0.15497103
0.77563345 -0.064452767 0.15381944
0.78356671 -0.065227382 0.15459892
0.79163843 -0.069765523 0.15663506
0.84530997 -0.067652397 0.15935081
0.85509348 -0.06473162 0.15565351
0.86288923 -0.063318662 0.1526148
0.76638526 -0.055224136 0.15327644
0.77754766 -0.054164115 0.15386042
0.78259134 -0.053492635 0.15507779
0.85709566 -0.054771464 0.15780117
0.86481625 -0.054962851 0.15323366
0.87121403 -0.051512845 0.15234122
0.88133168 -0.052872077 0.15401095
0.76712793 -0.045203995 0.15542793
0.77443868 -0.045533791 0.1546071
0.7826125 -0.045627579 0.15721633
0.8575418 -0.044231847 0.15765423
0.86482835 -0.044931278 0.15399671
0.87207198 -0.044205539 0.15125442
0.76811981 -0.036289465 0.15238811
0.77456003 -0.034137927 0.15575345
0.78307575 -0.034232654 0.15510665
0.84785247 -0.031642161 0.15775704
0.85601789 -0.034254111 0.15602684
0.8634634 -0.0356263 0.152363
0.76942182 -0.027946413 0.15775287
0.77691388 -0.0250936 0.15456909
0.78398198 -0.024412656 0.15524819
0.83703798 -0.021354824 0.15801749
0.84587604 -0.024311066 0.15587293
0.85411906 -0.027525868 0.15390719
0.77885097 -0.018060932 0.15344305
0.78566569 -0.015343205 0.154489
0.79436409 -0.013058639 0.15595455
0.8060326 -0.011142805 0.15648054
0.81535059 -0.011648354 0.15703696
0.82507211 -0.012866463 0.1552441
0.83483654 -0.015517733 0.15421483
0.84403354 -0.017483629 0.15397723
0.85056198 -0.019089013 0.15719461
0.78810179 -0.0095144212 0.15381324
0.79500812 -0.0084779635 0.15506952
0.80440772 -0.0084307576 0.15506354
0.81443852 -0.0086657275 0.15291688
0.82453531 -0.0085253548 0.15533826
0.78848708 -0.082800269 0.16498078
0.7969287 -0.0821523 0.16528498
0.80594945 -0.082255431 0.16288246
0.81494051 -0.081749842 0.16383478
0.7768414 -0.071193814 0.16270238
0.78662419 -0.07409776 0.16432381
0.7949065 -0.074025042 0.16485704
0.80500871 -0.076295577 0.16599493
0.8151508 -0.077062257 0.16510595
0.82584757 -0.075380854 0.16446827
0.83509159 -0.074280962 0.16497254
0.8422339 -0.071781486 0.16122681
0.76980579 -0.06340903 0.16127054
0.77156597 -0.064827047 0.16222478
0.78667819 -0.064251609 0.16485989
0.79235619 -0.067397766 0.16656882
0.82977879 -0.065715253 0.16934043
0.8355934 -0.066095673 0.16663902
0.84460026 -0.064118408 0.16428913
0.85285002 -0.063935012 0.16158773
0.86524379 -0.063617468 0.16164088
0.74843746 -0.050641865 0.16725382
0.76660424 -0.053851161 0.16402392
0.7755518 -0.054571014 0.16615087
0.78419954 -0.056371618 0.16601856
0.8387897 -0.058638647 0.16842513
0.84548551 -0.052933887 0.16674389
0.85398644 -0.054885671 0.16230096
0.86203068 -0.058381751 0.16163146
0.74857956 -0.044608016 0.16773124
0.75594163 -0.045285214 0.16685139
0.76436853 -0.044671826 0.16485396
0.77611238 -0.045958135 0.16477871
0.78295577 -0.043485887 0.16259524
0.83805394 -0.047040582 0.16974938
0.84557104 -0.044924229 0.16719982
0.85270214 -0.04443777 0.16249482
0.86295474 -0.047770582 0.16020957
0.7551536 -0.034935623 0.16904603
0.76599139 -0.035601791 0.16582432
0.774988 -0.034467049 0.16526589
0.78294843 -0.032022435 0.1664082
0.83682078 -0.033017155 0.16834252
0.84448379 -0.035372023 0.16473471
0.85312432 -0.03642679 0.16222854
0.76624471 -0.029643079 0.16592844
0.77667862 -0.026243968 0.16335434
0.78469455 -0.02472588 0.16530055
0.79253399 -0.023805507 0.16678666
0.82558775 -0.022035614 0.16726415
0.83499581 -0.024838783 0.16513978
0.8433432 -0.02697028 0.16206913
0.78686422 -0.017005021 0.16302784
0.79524165 -0.014651004 0.16486683
0.80480778 -0.013539276 0.16569273
0.81543177 -0.014363272 0.16463254
0.8244155 -0.016277343 0.16408882
0.83516997 -0.016312322 0.16227779
0.8448866 -0.017514525 0.16391005
0.804115 -0.009099178 0.16390106
0.81179571 -0.0076233596 0.1612761
0.7934829 -0.084375829 0.17643303
0.80068111 -0.080348685 0.17145857
0.78889948 -0.072399423 0.17135614
0.79598427 -0.073979206 0.17476083
0.80513644 -0.073792912 0.17398168
0.81460738 -0.073755324 0.17376319
0.82240885 -0.074099652 0.1736697
0.76723957 -0.061887018 0.17670643
0.7878781 -0.062657371 0.17297679
0.7953276 -0.064915799 0.17495993
0.8045795 -0.065486498 0.1770975
0.81502295 -0.066115759 0.17727266
0.82405686 -0.06609071 0.17521103
0.83350217 -0.065036856 0.17343816
0.84466255 -0.062591493 0.17101526
0.74651313 -0.052162472 0.17635497
0.75303853 -0.053179666 0.17591934
0.76626843 -0.052936792 0.17659026
0.77527708 -0.053883616 0.17502642
0.78576124 -0.053825717 0.1743001
0.79445636 -0.055793785 0.17642574
0.80242437 -0.056041423 0.17892928
0.81682181 -0.057727695 0.179625
0.82583481 -0.056134321 0.17799427
0.83551759 -0.0546319 0.17314605
0.84022152 -0.053352952 0.17291629
0.74690288 -0.04510868 0.17401201
0.75370657 -0.044269428 0.17431647
0.7657783 -0.045318887 0.17515983
0.7723152 -0.043449689 0.17089272
0.7855044 -0.044494774 0.17702697
0.79323179 -0.045445085 0.17671397
0.80236262 -0.044118065 0.17919137
0.82640398 -0.04452147 0.1783691
0.83533502 -0.045022499 0.17429163
0.84269238 -0.046653826 0.17183162
0.74790591 -0.03803461 0.17335722
0.75479275 -0.035424735 0.17526339
0.76502109 -0.034041937 0.1757486
0.77470863 -0.034396481 0.17496791
0.78474754 -0.035219248 0.17478558
0.7949881 -0.035586551 0.17691022
0.80397189 -0.033269621 0.17849796
0.8132956 -0.032509889 0.17876822
0.82534665 -0.033690549 0.17688052
0.83459002 -0.035318736 0.17311318
0.84453136 -0.037798315 0.17090638
0.75619495 -0.027900508 0.17754126
0.76654631 -0.02865674 0.17537858
0.77519369 -0.027336722 0.17432833
0.78675658 -0.02549741 0.1735536
0.79565173 -0.025158307 0.17451017
0.80434245 -0.023698861 0.17611375
0.81553447 -0.024495374 0.17605354
0.82430315 -0.025439158 0.17358825
0.83410728 -0.0269433 0.17205036
0.84773904 -0.021217503 0.17117608
0.78784496 -0.018707365 0.17055984
0.79671383 -0.017720437 0.17340474
0.80462855 -0.016063904 0.1733337
0.81333292 -0.01642237 0.17320377
0.82323861 -0.014725745 0.17371494
0.80488074 -0.07125105 0.18187742
0.75714248 -0.060183894 0.18449658
0.76486349 -0.061031748 0.18565944
0.77674586 -0.060324743 0.18173245
0.79620641 -0.065626606 0.18186969
0.8045826 -0.064817823 0.18352409
0.81389159 -0.06464123 0.18251547
0.82418519 -0.062397435 0.18259591
0.83142865 -0.061843961 0.18031079
0.74602079 -0.054406624 0.18434824
0.75525486 -0.055501007 0.18484409
0.76484698 -0.053654522 0.18450114
0.77451324 -0.052429583 0.18378067
0.78198761 -0.052877292 0.18181591
0.79601598 -0.055024765 0.18311173
0.80502999 -0.054395877 0.18322767
0.81425339 -0.054711077 0.18473752
0.82290971 -0.055062618 0.18294862
0.8349973 -0.05522722 0.18165237
0.74793357 -0.046756759 0.18363051
0.75678843 -0.044874828 0.18363865
0.7648977 -0.044895228 0.18705563
0.77556449 -0.044644304 0.1849785
0.78326946 -0.044680029 0.18316433
0.79543585 -0.044841744 0.18320741
0.80517912 -0.044892918 0.18437164
0.81475866 -0.045186657 0.1847019
0.82296938 -0.044114821 0.18365459
0.83055615 -0.047688961 0.18215826
0.74833947 -0.038239796 0.18285991
0.75629896 -0.036038488 0.18424684
0.76472372 -0.035417866 0.18550864
0.77355528 -0.035949897 0.18348503
0.78402889 -0.037418604 0.18346332
0.79587299 -0.035221785 0.18345554
0.80550641 -0.034929305 0.18307456
0.81429905 -0.034900874 0.18360025
0.82334131 -0.035856582 0.18297814
0.83323532 -0.033655994 0.18105252
0.84067559 -0.032592669 0.18107206
0.75812292 -0.024428109 0.18118845
0.76387268 -0.027334992 0.18509285
0.79381043 -0.027381266 0.18275328
0.80458963 -0.025534103 0.18329629
0.81494248 -0.026761463 0.18275361
0.82274044 -0.025189586 0.18212937
0.80169559 -0.019216061 0.18195161
0.81465226 -0.01866743 0.18227899
0.74841022 -0.060039639 0.19105837
0.76454633 -0.060243417 0.19146751
0.80879235 -0.062441111 0.19366223
0.7452749 -0.055467427 0.19231221
0.75491405 -0.054472502 0.19408807
0.76402885 -0.053312816 0.19340555
0.77257997 -0.051179431 0.1933317
0.80830234 -0.053551063 0.1903033
0.81896168 -0.056132466 0.192747
0.82190323 -0.052615434 0.19331196
0.74997282 -0.049317181 0.19757996
0.75659597 -0.045330539 0.19516733
0.76531315 -0.044998262 0.1932517
0.77201676 -0.043766402 0.19371179
0.79629952 -0.045548752 0.191489
0.8050288 -0.045948692 0.19142856
0.81245363 -0.041167825 0.19223422
0.74925494 -0.039962828 0.1906973
0.7560693 -0.036854744 0.196549
0.76637667 -0.035311617 0.19382396
0.7719022 -0.035011262 0.1950867
0.80104691 -0.032068372 0.19129232
0.81080604 -0.035350889 0.19160309
0.766895 -0.02981931 0.19328034
0.77020144 -0.029803336 0.1960806
0.80826426 -0.025494695 0.19277295
0.75746459 -0.050111473 0.20207866
0.76158279 -0.041327417 0.20346668
0.77248126 -0.049179278 0.2008203
0.77269137 -0.037087679 0.20116958
0 0 0 1 0 0 0 1 0 0 0 1 0 0 0 0 0 1035 1 0 0
