ply
format ascii 1.0
comment PCL generated
element vertex 1316
property float x
property float y
property float z
element camera 1
property float view_px
property float view_py
property float view_pz
property float x_axisx
property float x_axisy
property float x_axisz
property float y_axisx
property float y_axisy
property float y_axisz
property float z_axisx
property float z_axisy
property float z_axisz
property float focal
property float scalex
property float scaley
property float centerx
property float centery
property int viewportx
property int viewporty
property float k1
property float k2
end_header
0.93976867 -0.13661398 0.039662145
0.90921772 -0.12613392 0.036486119
0.93719512 -0.1236195 0.03606065
0.94786465 -0.15089417 0.046314664
0.93714172 -0.14188454 0.045904435
0.9448123 -0.14495042 0.044485681
0.913589 -0.13363042 0.043283321
0.92833728 -0.13613589 0.046794176
0.93501323 -0.13684025 0.044901956
0.94309312 -0.13331991 0.042632952
0.91914272 -0.12243164 0.047396384
0.92655653 -0.12386928 0.046404194
0.93653524 -0.12340355 0.045020021
0.94462508 -0.12487879 0.045472864
0.9358725 -0.11359414 0.044463798
0.94630593 -0.11692063 0.047301054
0.94258595 -0.10706866 0.048662513
0.95466262 -0.10510858 0.045657955
0.94772208 -0.16022497 0.059915394
0.95612448 -0.16310321 0.05693328
0.93658936 -0.15128961 0.05872789
0.94581169 -0.15368801 0.055824287
0.95413309 -0.15768394 0.053875826
0.92649704 -0.1411379 0.056209225
0.93441367 -0.14436553 0.055436149
0.94125062 -0.14734018 0.05305459
0.91903615 -0.1346495 0.058051467
0.9249621 -0.13564557 0.055483416
0.93264234 -0.13823363 0.05229795
0.91549426 -0.1232572 0.057524014
0.92521977 -0.12279543 0.056166198
0.93404114 -0.12370349 0.054463927
0.94579399 -0.12228362 0.052147798
0.88891363 -0.1127212 0.057838231
0.89231241 -0.11459064 0.058880433
0.91729641 -0.11793551 0.056095466
0.92652702 -0.11561408 0.055720758
0.93516797 -0.11623397 0.0554468
0.9446606 -0.11441831 0.054309748
0.953996 -0.1143945 0.052923322
0.93527538 -0.10567236 0.056814212
0.94732165 -0.10687494 0.057575993
0.95555592 -0.10610771 0.054934941
0.94033396 -0.099428475 0.059181869
0.9562785 -0.096024811 0.055727001
0.95899713 -0.1737182 0.068206266
0.9473573 -0.16303824 0.066910893
0.95499295 -0.16639929 0.064651281
0.96012193 -0.16773966 0.061627865
0.93556947 -0.15335988 0.065929838
0.94339412 -0.15667549 0.06419497
0.95062876 -0.15930282 0.066341817
0.91817963 -0.14229685 0.066516608
0.92538124 -0.145281 0.06467817
0.93209219 -0.1478499 0.064713635
0.90795392 -0.13462768 0.068512648
0.91490376 -0.13624078 0.065333553
0.92190957 -0.13843964 0.063347585
0.89996624 -0.12041414 0.062652439
0.90596843 -0.1227093 0.066878721
0.91540033 -0.12477864 0.064950176
0.92527306 -0.1244459 0.064341143
0.93805254 -0.12054533 0.06077867
0.88879299 -0.11398965 0.06328319
0.89793468 -0.11819622 0.063452944
0.9040367 -0.11714739 0.06586431
0.91487825 -0.11620762 0.06630227
0.92542779 -0.11625092 0.065755866
0.93407917 -0.11420279 0.064381726
0.9444499 -0.11381458 0.063814007
0.91452861 -0.10861272 0.069654092
0.92730379 -0.10427133 0.066353701
0.93592632 -0.10666816 0.063856624
0.94434994 -0.10558244 0.067336179
0.9547472 -0.1035461 0.063343927
0.96405649 -0.10198762 0.062070314
0.93712765 -0.097246289 0.066806979
0.94560504 -0.096382469 0.065794051
0.95334178 -0.095558971 0.065079927
0.9646644 -0.095075235 0.065471031
0.9565779 -0.087063819 0.067188531
0.96575552 -0.086205401 0.066011675
0.97476858 -0.085738413 0.065917403
0.97455102 -0.076224864 0.066389225
0.94745344 -0.1715543 0.076988429
0.95507365 -0.17451487 0.075263187
0.96530318 -0.17636068 0.075934738
0.93689603 -0.16180499 0.075841025
0.94458717 -0.16563106 0.07443814
0.95151764 -0.16634768 0.070307955
0.92597103 -0.1528174 0.075834051
0.93435532 -0.15774453 0.074659258
0.90780634 -0.14151111 0.076948427
0.91521734 -0.14463085 0.075004607
0.92350131 -0.14730445 0.073258474
0.89918453 -0.13468179 0.077223562
0.90464795 -0.13501699 0.075394861
0.91336107 -0.13875318 0.074423075
0.88776064 -0.12233804 0.077607587
0.89607096 -0.1231341 0.073636614
0.90448105 -0.12324131 0.074557856
0.91416186 -0.12200679 0.075020775
0.92087275 -0.12238863 0.072680287
0.89607143 -0.11658294 0.076214649
0.90695584 -0.11630386 0.075742245
0.91550517 -0.11423647 0.076022953
0.92452437 -0.114525 0.073835224
0.93683022 -0.11286534 0.072359696
0.90163326 -0.10978854 0.075872779
0.91437072 -0.10531726 0.076138325
0.92499053 -0.10691287 0.074597202
0.93437481 -0.10449432 0.074949048
0.94459403 -0.10412498 0.074074425
0.95849454 -0.10014322 0.070912316
0.91137147 -0.099633634 0.079434544
0.92494345 -0.095647067 0.079250641
0.93588191 -0.096111856 0.073910668
0.94539356 -0.094929658 0.076452844
0.9543097 -0.095697835 0.073000595
0.96529007 -0.091407612 0.072822317
0.93751359 -0.089587569 0.079131596
0.94689685 -0.085737549 0.076705061
0.95470321 -0.085454501 0.077120081
0.96524996 -0.084382348 0.074007004
0.97440857 -0.084284954 0.073728174
0.95798194 -0.078108072 0.076134443
0.96515918 -0.076585129 0.077109933
0.975977 -0.07621403 0.075648122
0.96689051 -0.06942144 0.07904423
0.97765648 -0.067468166 0.075299159
0.98491096 -0.066992871 0.076395959
0.96013379 -0.18035887 0.085174382
0.93858749 -0.17195094 0.088866025
0.94502544 -0.17382379 0.08593221
0.95541817 -0.17511408 0.085589491
0.963489 -0.17423995 0.084288865
0.97169608 -0.17192373 0.081661567
0.9281134 -0.16152486 0.085563086
0.93546271 -0.16561311 0.085055903
0.94086546 -0.16826214 0.083158791
0.95994592 -0.16981699 0.087078214
0.96651286 -0.16748765 0.087639831
0.97514933 -0.16420873 0.084585778
0.91651815 -0.15292731 0.085928716
0.92340761 -0.1562874 0.084946461
0.93192142 -0.15799454 0.082959399
0.97983742 -0.15888631 0.087346852
0.89840287 -0.14125223 0.087460212
0.90532249 -0.14406322 0.085754283
0.91416061 -0.14775023 0.083245121
0.88641506 -0.13316935 0.087612823
0.89455342 -0.1353651 0.085168548
0.90262955 -0.138419 0.082345143
0.87718385 -0.12213093 0.086642556
0.88584405 -0.12231154 0.085087284
0.89366895 -0.12518793 0.084248476
0.90306932 -0.12245057 0.08394853
0.87584049 -0.11862323 0.087008096
0.88626903 -0.11673715 0.086665951
0.89525646 -0.11681004 0.085679099
0.90452164 -0.11513804 0.084833823
0.91378754 -0.11369191 0.083068773
0.92405117 -0.11282963 0.082800642
0.89663267 -0.10652977 0.087567836
0.90486115 -0.10611441 0.084784232
0.9154675 -0.10550018 0.085936598
0.92532325 -0.10471657 0.083887309
0.93642956 -0.1023377 0.084384426
0.91617465 -0.096897513 0.086718522
0.92563111 -0.095411353 0.085627928
0.93449444 -0.096024469 0.084324583
0.94583619 -0.095708437 0.082930483
0.95358068 -0.091013193 0.081486121
0.93452549 -0.084938988 0.08631625
0.94418228 -0.087377235 0.086054005
0.95442909 -0.08487311 0.085134283
0.96406657 -0.083555616 0.082785562
0.9717772 -0.081093282 0.083454512
0.93972313 -0.078399777 0.088348366
0.94806606 -0.076056503 0.087242611
0.9556793 -0.074472249 0.08589647
0.96414381 -0.076641746 0.085233308
0.97529542 -0.074634187 0.085317954
0.98452789 -0.071342722 0.083785921
0.9657656 -0.06636548 0.085484229
0.97692335 -0.065053232 0.085829124
0.98578781 -0.065810397 0.085273258
0.98564816 -0.055368543 0.086314194
0.99651647 -0.048666745 0.086751908
0.92627603 -0.17128196 0.099296764
0.93541831 -0.1731517 0.096669398
0.94530338 -0.17333964 0.095163539
0.95351434 -0.17273995 0.092908591
0.96343124 -0.17079334 0.090969861
0.91831923 -0.16200358 0.096047118
0.92554462 -0.16536145 0.095466651
0.93196356 -0.16911352 0.093935087
0.94700831 -0.16808681 0.098388553
0.95591623 -0.1665426 0.096128196
0.9647525 -0.16433504 0.093945794
0.97318316 -0.1620353 0.092541412
0.89987254 -0.15079835 0.099986851
0.90554935 -0.15195775 0.096612744
0.9139334 -0.15661746 0.095053323
0.92099863 -0.1575194 0.092990085
0.96594733 -0.15807563 0.097327918
0.97622526 -0.15520895 0.09528102
0.98339921 -0.15366399 0.094892077
0.88842255 -0.14198491 0.098982513
0.89537227 -0.14399759 0.096246757
0.90273255 -0.14679347 0.093028672
0.91133118 -0.14985397 0.09400259
0.98496765 -0.14827411 0.096234426
0.87720698 -0.13111295 0.09698347
0.8850646 -0.13482617 0.095097825
0.89308822 -0.13814087 0.092644908
0.86452103 -0.12088498 0.095664859
0.87328553 -0.1256893 0.098425522
0.88365817 -0.12590319 0.095328115
0.89244968 -0.1201572 0.09682934
0.86716861 -0.11783103 0.097164139
0.8754046 -0.11661307 0.096106879
0.88521796 -0.11582444 0.095251009
0.89458334 -0.11479261 0.094540313
0.90293229 -0.11282495 0.094079971
0.87860215 -0.10846162 0.097452588
0.88554293 -0.1054451 0.096060432
0.89318216 -0.10641629 0.094851665
0.90454596 -0.10593691 0.095453426
0.91423529 -0.10396915 0.095049426
0.92519927 -0.10192633 0.093198687
0.8975175 -0.098342158 0.096280687
0.90692818 -0.095193431 0.098014459
0.915932 -0.096084662 0.095800675
0.92473835 -0.095516853 0.09475296
0.93333453 -0.09330108 0.092595197
0.94687313 -0.090201557 0.091169111
0.90801901 -0.088912129 0.099909939
0.91727805 -0.08723256 0.09424831
0.92409545 -0.085555278 0.096322775
0.93632537 -0.086835638 0.094624907
0.94478548 -0.08512044 0.09457536
0.95484066 -0.082417436 0.094262898
0.92891067 -0.078638673 0.095895208
0.935206 -0.076550648 0.096019581
0.94517446 -0.07634034 0.096057534
0.95564729 -0.07562951 0.09519887
0.96530205 -0.073273733 0.094021156
0.9550584 -0.066721655 0.096327655
0.96565324 -0.065482296 0.094882689
0.97528929 -0.064933255 0.095698416
0.98366004 -0.063653432 0.09374243
0.99242014 -0.061301045 0.093468808
0.96667719 -0.05731672 0.098084629
0.97648096 -0.057689853 0.0954808
0.98550576 -0.055460066 0.096044227
0.99429232 -0.054379191 0.093952604
0.98655862 -0.047894638 0.097779416
0.99564219 -0.046575271 0.096489608
1.0049862 -0.04480391 0.095959075
0.99414653 -0.039460063 0.099713489
0.91642457 -0.17062913 0.10903589
0.92506611 -0.17223783 0.10672743
0.93426967 -0.17303954 0.10431728
0.94310951 -0.17092013 0.10234465
0.90680218 -0.16095692 0.10886616
0.91500115 -0.16472641 0.10576011
0.92158246 -0.16780543 0.10441651
0.93690491 -0.1680627 0.10733435
0.94584829 -0.1646717 0.10528941
0.95487326 -0.16244192 0.10207423
0.89651626 -0.15212676 0.10733137
0.90520108 -0.15615429 0.10440497
0.91180062 -0.158329 0.10244694
0.94352102 -0.15968379 0.10849708
0.9559238 -0.1561521 0.10627561
0.96488118 -0.15434681 0.10443205
0.97348058 -0.15251695 0.10275094
0.9811669 -0.15065256 0.10020196
0.88585216 -0.14358972 0.10642525
0.89521939 -0.14657499 0.1037835
0.96701396 -0.14811373 0.10774056
0.97593868 -0.14582208 0.10592014
0.98439187 -0.14414054 0.10393132
0.99383658 -0.14262921 0.10216701
0.86610258 -0.13039964 0.1062783
0.87635374 -0.1337003 0.10595445
0.88230991 -0.13725235 0.1023799
0.98765945 -0.13746545 0.10558954
0.99479818 -0.13538395 0.10473274
0.86641675 -0.12373156 0.1057725
0.87449419 -0.12519453 0.10602093
0.88273877 -0.12157627 0.10312581
1.0058784 -0.12640233 0.10736265
0.86701453 -0.11781193 0.1039703
0.87576294 -0.11624373 0.10612027
0.8845188 -0.11466586 0.10532773
0.89188546 -0.11321671 0.10540175
0.87634021 -0.10666078 0.10564519
0.88600582 -0.10563287 0.1061277
0.89572406 -0.10424833 0.10508426
0.90369087 -0.10397298 0.10382038
0.9100275 -0.10315821 0.10385953
0.88389349 -0.097525552 0.10628746
0.89655423 -0.09583205 0.1059631
0.90472955 -0.096296772 0.10597187
0.91508347 -0.094468758 0.1045745
0.92425913 -0.092128642 0.10311842
0.93063897 -0.092096113 0.10520802
0.89542836 -0.089628994 0.1078366
0.90390235 -0.08506234 0.10581548
0.91526049 -0.087258846 0.10661233
0.92604607 -0.085247904 0.1060846
0.9344849 -0.083680362 0.10391834
0.9461832 -0.080718435 0.10264784
0.91546839 -0.078437604 0.10691004
0.92504913 -0.073892936 0.10747086
0.93658841 -0.075449184 0.10701
0.94423211 -0.075257778 0.10482278
0.95425344 -0.073480263 0.10336398
0.92665839 -0.068562925 0.10983932
0.93718648 -0.067584828 0.10536274
0.94705778 -0.065953285 0.10515508
0.95516396 -0.065670826 0.10611229
0.96479183 -0.064357273 0.10492935
0.97297424 -0.062592871 0.10342463
0.95595551 -0.05635798 0.10673066
0.9659155 -0.056789558 0.10641285
0.97506499 -0.055739503 0.10647866
0.98432726 -0.054218035 0.10331086
0.95958304 -0.049718678 0.10995547
0.96797127 -0.04817909 0.10827599
0.9734996 -0.046978071 0.10507347
0.98563522 -0.046394985 0.10590188
0.99538344 -0.04524665 0.10475113
1.0043811 -0.041808497 0.10487755
0.98708218 -0.037603736 0.10733306
0.99636036 -0.035809953 0.10617971
1.0055455 -0.035111427 0.10568931
1.0053444 -0.027615741 0.10939189
1.0149987 -0.019584298 0.10740659
0.90454537 -0.170876 0.11665982
0.91479325 -0.17267153 0.11635777
0.92377168 -0.17122401 0.11367819
0.93190265 -0.1725895 0.1113534
0.89796102 -0.1603983 0.11496547
0.90496755 -0.16476415 0.11524391
0.91354942 -0.16775464 0.11487876
0.92622453 -0.16685013 0.11621283
0.93478996 -0.16391736 0.11395141
0.94160175 -0.16224113 0.11352853
0.88749498 -0.1512192 0.11572035
0.89526218 -0.15644783 0.11603928
0.90234554 -0.15668857 0.11181368
0.93632412 -0.15671919 0.11750276
0.94595689 -0.15541235 0.11528355
0.95456147 -0.15285166 0.11337536
0.96239281 -0.15202987 0.11218319
0.87731981 -0.14406569 0.11740121
0.88393867 -0.14436881 0.11591611
0.89091825 -0.14950696 0.11493741
0.94420528 -0.14980458 0.11921518
0.95546925 -0.14742507 0.11620838
0.96444803 -0.1445481 0.11498192
0.9732511 -0.14279778 0.11321019
0.98098165 -0.14173321 0.11140567
0.86930436 -0.13428323 0.11283735
0.87609267 -0.1347259 0.11508862
0.88266206 -0.13506471 0.116311
0.96692985 -0.13689916 0.1169002
0.97535002 -0.13603866 0.11617833
0.98435938 -0.13507503 0.11429687
0.99331301 -0.13415278 0.11163838
0.86814809 -0.12593877 0.11215928
0.87610143 -0.12512408 0.1137558
0.88325912 -0.12437038 0.11611787
0.98726684 -0.12798609 0.11868946
0.99547559 -0.12625526 0.11594567
1.0040603 -0.12419687 0.11413546
0.86859113 -0.11911717 0.11159071
0.87770152 -0.11520018 0.11399934
0.88381374 -0.11415936 0.11569508
1.0067856 -0.11716824 0.11710795
0.87745094 -0.10615543 0.11447668
0.88497263 -0.10513046 0.11583243
0.89386743 -0.10307188 0.11550457
0.87733364 -0.094232082 0.11870824
0.88586968 -0.096016616 0.11635236
0.89506781 -0.096252553 0.11556646
0.90311676 -0.092656851 0.11491293
0.91457182 -0.09227255 0.11253235
0.88970721 -0.088624835 0.11333942
0.89486104 -0.085982509 0.116341
0.90599746 -0.086066395 0.11579546
0.9146409 -0.084651746 0.11458472
0.92472649 -0.082831785 0.11345161
0.89990789 -0.079029679 0.11561394
0.9053756 -0.075598776 0.11655276
0.91628104 -0.075241067 0.11567573
0.92656559 -0.076006293 0.11677697
0.93482125 -0.074150525 0.11491427
0.94667381 -0.071955986 0.11279663
0.9233892 -0.065332077 0.11610665
0.93646502 -0.065963686 0.1156735
0.94572562 -0.064598426 0.11553224
0.95545429 -0.063791521 0.11350375
0.96248758 -0.060239121 0.11202641
0.9338513 -0.057231784 0.11943524
0.94536179 -0.054380309 0.11624286
0.9549098 -0.057140328 0.11637634
0.96402746 -0.055022158 0.11498098
0.97309452 -0.052447058 0.11463813
0.98034197 -0.051945843 0.11373168
0.95617443 -0.047613442 0.11619452
0.96645451 -0.04545927 0.11459271
0.97534561 -0.044974413 0.11515591
0.98478538 -0.045424256 0.11416665
0.99215382 -0.041044474 0.11417539
0.96477425 -0.039972484 0.1188626
0.9760254 -0.036977708 0.11572865
0.98410046 -0.035696089 0.11679808
0.99548358 -0.035522819 0.11570177
1.0043257 -0.034163881 0.11345939
1.0126805 -0.030419111 0.11140299
0.98852736 -0.028146148 0.11637005
0.99642694 -0.02481994 0.11624375
1.0050609 -0.026936991 0.11454935
1.0142912 -0.02525866 0.11499182
1.0149418 -0.017680395 0.11660834
1.025043 -0.01553033 0.11559668
1.0240495 -0.0072004199 0.11747339
0.89843446 -0.17298205 0.12805264
0.90561283 -0.1717107 0.12361468
0.91478986 -0.17069826 0.12266305
0.92175525 -0.17213857 0.12041265
0.88462502 -0.1625426 0.1255642
0.8949483 -0.16395657 0.1267878
0.90539783 -0.1669389 0.12534504
0.91496879 -0.16626589 0.12492772
0.92388058 -0.16317526 0.12286509
0.93086517 -0.16119517 0.12113398
0.87943 -0.15186489 0.12604003
0.88707447 -0.15391095 0.12488843
0.8918438 -0.15574314 0.12639956
0.91798788 -0.15882076 0.12785287
0.92659652 -0.15562375 0.1267827
0.93497682 -0.15464401 0.12450809
0.9427278 -0.15316834 0.1217737
0.87705886 -0.14480785 0.12405069
0.88612747 -0.14491087 0.12429917
0.89137638 -0.14403839 0.12731272
0.93700618 -0.14860518 0.12745622
0.94550914 -0.14654906 0.12524924
0.95400709 -0.14425261 0.12338194
0.96369517 -0.14093928 0.12213352
0.97298092 -0.14276263 0.12628657
0.87885296 -0.13429847 0.12428562
0.88604689 -0.13482977 0.12356193
0.89215893 -0.1346526 0.1272351
0.94737101 -0.13794765 0.12810148
0.9570927 -0.13789877 0.12637869
0.96536428 -0.13526574 0.12541272
0.97483039 -0.13310203 0.12306456
0.98217368 -0.13011749 0.1265465
0.87810594 -0.12581661 0.12236927
0.88617897 -0.12485604 0.12378125
0.89233786 -0.12494204 0.12677632
0.96723282 -0.128833 0.12736337
0.97689098 -0.12723637 0.12615906
0.98506451 -0.12405916 0.12525961
0.9941467 -0.1221985 0.12296616
0.87720191 -0.11673155 0.12127419
0.88630307 -0.11562599 0.12363234
0.89303315 -0.11478799 0.12663919
0.98820329 -0.11931187 0.12700582
0.99576128 -0.11650362 0.12660205
1.0052252 -0.11390788 0.124762
1.014618 -0.11173099 0.12268372
0.878299 -0.10289854 0.12111318
0.88641244 -0.1051029 0.12401069
0.89328855 -0.10460485 0.1256433
1.0060301 -0.10927072 0.12761261
1.0147948 -0.10604077 0.12551717
0.88751757 -0.096016616 0.12426917
0.89461309 -0.095268622 0.12643492
0.90129679 -0.091504924 0.12511869
0.88538361 -0.087255456 0.12357688
0.89597583 -0.086473934 0.1264946
0.90420669 -0.08445657 0.1257726
0.91483748 -0.081868835 0.12451098
0.89557838 -0.077366456 0.12682149
0.90565902 -0.076281197 0.12669483
0.91530424 -0.075204648 0.12497839
0.92465681 -0.074457183 0.12334399
0.93667346 -0.071476348 0.12214193
0.94019079 -0.070185125 0.1225297
0.90774441 -0.067314297 0.12462522
0.91561419 -0.064547367 0.12509218
0.92637277 -0.066955879 0.12613757
0.93429941 -0.064667247 0.12571381
0.94386923 -0.064297579 0.12352321
0.95420492 -0.06104264 0.12161108
0.925493 -0.056951612 0.12664908
0.93611085 -0.054839507 0.12365969
0.94575644 -0.055513132 0.12659411
0.95392555 -0.055060994 0.12390113
0.96289963 -0.051982403 0.1226478
0.93818456 -0.0481233 0.12951547
0.94596171 -0.044531524 0.12779669
0.95556068 -0.046606328 0.12564984
0.96551234 -0.046203703 0.12528847
0.97279298 -0.04414114 0.12427275
0.98293054 -0.041243792 0.12273064
0.95447981 -0.039196253 0.12839827
0.96488106 -0.035724103 0.12464869
0.97594035 -0.03725002 0.1261622
0.98388821 -0.035363086 0.12579849
0.99319553 -0.032275461 0.12354095
0.97691077 -0.027863244 0.12544829
0.98797357 -0.026469862 0.12694041
0.99615318 -0.026348941 0.12564419
1.0042051 -0.023698347 0.12550662
1.012973 -0.022540355 0.1234682
0.99648541 -0.017818771 0.12639517
1.0075866 -0.016719647 0.12551853
1.0152467 -0.015031363 0.12577344
1.0252677 -0.013063911 0.12256464
1.0180233 -0.0055593252 0.12632295
1.025479 -0.0064856005 0.12545492
1.0343151 -0.0052352236 0.12488917
1.0280554 0.0019515356 0.12531139
1.0356548 0.0073024035 0.1284343
0.89495254 -0.17199272 0.13140184
0.90177727 -0.17028606 0.13334386
0.88495779 -0.16071288 0.1338771
0.89655417 -0.16417959 0.1343032
0.90381813 -0.16490579 0.13462649
0.91242981 -0.16219959 0.13244529
0.88572103 -0.15484941 0.13413385
0.89495498 -0.15487184 0.13457273
0.90519458 -0.15764676 0.13838008
0.91564935 -0.15579534 0.13589653
0.9236114 -0.15358537 0.13437822
0.93280649 -0.15134408 0.13209882
0.87616211 -0.14791745 0.13115406
0.88603616 -0.14574502 0.1339242
0.89571834 -0.14521384 0.13519743
0.90124112 -0.1449354 0.13923684
0.91881597 -0.14823009 0.13822049
0.92684883 -0.14791358 0.13727257
0.93555349 -0.14559178 0.13491422
0.94357067 -0.14285031 0.13305375
0.88810974 -0.13610083 0.13356684
0.89596003 -0.13584313 0.13448051
0.90159923 -0.13302355 0.13838188
0.9384582 -0.13865739 0.13963015
0.94658548 -0.13673164 0.13646194
0.9544481 -0.1349332 0.13365194
0.9638958 -0.13256939 0.13219699
0.88762504 -0.12517415 0.13231237
0.89645797 -0.12491582 0.13413063
0.90220135 -0.12554434 0.13817123
0.95709139 -0.12845047 0.13754548
0.96577936 -0.12573983 0.13590816
0.97403556 -0.12417547 0.13416694
0.98290503 -0.12110716 0.13352066
0.88755244 -0.11304444 0.13181037
0.89594036 -0.11525086 0.13423015
0.90241975 -0.1152287 0.13750762
0.97601831 -0.11700027 0.13688944
0.98490894 -0.11494993 0.13571587
0.99390346 -0.11251039 0.13363637
1.0002456 -0.11023189 0.13348997
0.88842762 -0.10544074 0.13090213
0.89649194 -0.10468945 0.13366611
0.90303165 -0.10460901 0.13709527
0.98825049 -0.1097599 0.13961837
0.99557179 -0.10649548 0.13761035
1.0049378 -0.10481766 0.13530079
1.0150539 -0.10192897 0.13237099
1.021945 -0.10137314 0.1309495
0.89613318 -0.095037051 0.13377923
0.90379488 -0.094688445 0.13639322
0.99922252 -0.097510487 0.13930357
1.0069084 -0.098689049 0.13943708
1.0164655 -0.096514501 0.13593969
1.0247368 -0.09368939 0.13494276
0.88910711 -0.085597694 0.13214456
0.89730006 -0.085359313 0.13347772
0.90380919 -0.084620371 0.13599631
1.0175116 -0.088547021 0.1388346
1.0262159 -0.089036651 0.13813241
0.89553356 -0.075828172 0.13381526
0.90470976 -0.075935505 0.13607575
0.91356903 -0.072682947 0.13424189
1.0367498 -0.079448245 0.1388564
0.89911079 -0.068468809 0.1325036
0.90686899 -0.06405963 0.13548425
0.9156847 -0.06562753 0.1361538
0.92547441 -0.064143382 0.13424741
0.93507862 -0.062462311 0.13353065
0.91588569 -0.055575471 0.13521707
0.92493254 -0.055856735 0.13628063
0.93564308 -0.055981528 0.13425045
0.94452506 -0.054195803 0.13433625
0.95251596 -0.05150269 0.13217479
0.92749435 -0.047776669 0.13617504
0.93585199 -0.045684736 0.13597561
0.94556117 -0.046796296 0.13572931
0.9545325 -0.044930536 0.13560851
0.96361119 -0.042161703 0.13425653
0.94686913 -0.037783146 0.1356318
0.95594555 -0.035716388 0.13733506
0.96559137 -0.036096621 0.13597171
0.97383869 -0.03424041 0.13462451
0.98359364 -0.03160502 0.1336441
0.99052191 -0.030840755 0.13381962
0.96594161 -0.025750021 0.13793692
0.97686911 -0.026584864 0.13465199
0.98549998 -0.026091861 0.13492003
0.99418485 -0.023596393 0.13409197
0.98546809 -0.016846012 0.13677022
0.99584073 -0.017417606 0.13501531
1.0043552 -0.014673894 0.13538074
1.0137691 -0.012016156 0.13358034
1.0225036 -0.010870695 0.13066696
0.99206823 -0.0086785555 0.13760929
1.0061532 -0.0072412491 0.13525613
1.0157237 -0.0056567285 0.13588125
1.0250269 -0.0033632363 0.13398719
1.0322467 -0.00095524389 0.13526735
1.0152626 0.0014061928 0.13601355
1.025787 0.0043788557 0.13642071
1.0350745 0.0034816568 0.13388677
1.0437242 0.0053181057 0.13581161
1.0334582 0.012771666 0.13698007
0.8953374 -0.16133405 0.14090981
0.90165186 -0.16394207 0.14036375
0.88833284 -0.15508677 0.1411712
0.89636105 -0.1542868 0.14275669
0.90540153 -0.15360191 0.14357182
0.91517234 -0.15204293 0.14236389
0.88847518 -0.14684659 0.14208277
0.89554065 -0.14415298 0.14529146
0.90492463 -0.14522435 0.1448887
0.91361326 -0.14511237 0.14712739
0.92439914 -0.14455621 0.14411318
0.9320755 -0.14212044 0.14189786
0.89561963 -0.13411346 0.14327365
0.90539396 -0.13523097 0.14464499
0.91246998 -0.13575502 0.14902742
0.92795038 -0.13805634 0.14742485
0.93537647 -0.1356947 0.14566034
0.94391847 -0.13401736 0.14255166
0.95403689 -0.13095148 0.14312164
0.89615768 -0.12500538 0.14373493
0.90577376 -0.1250211 0.14548793
0.91185313 -0.12357163 0.14834756
0.93644369 -0.12904499 0.14890794
0.94528991 -0.12761049 0.14742193
0.95523304 -0.12419728 0.14577742
0.96271855 -0.12311283 0.14263625
0.89831388 -0.11551319 0.14371237
0.90623957 -0.11491279 0.14418198
0.9114154 -0.11466599 0.14757386
0.95892972 -0.11843991 0.14796822
0.96498269 -0.11630487 0.14655121
0.9743315 -0.11358104 0.14506194
0.9844076 -0.11125223 0.14301966
0.89788127 -0.106248 0.14364886
0.90660143 -0.10483911 0.14409663
0.91204005 -0.10420009 0.14723636
0.97587693 -0.10817605 0.14761271
0.98517281 -0.10566854 0.14587766
0.99444544 -0.10367305 0.14382237
1.0053377 -0.10129341 0.14131545
0.89692402 -0.093742706 0.1431663
0.90591902 -0.095002472 0.14411722
0.91220152 -0.094287314 0.14679696
0.99570173 -0.096773103 0.14728056
1.0050317 -0.09530858 0.14537415
1.0138056 -0.093679108 0.14318588
1.0209912 -0.091848969 0.14122316
0.89744365 -0.08544156 0.14451256
0.90633029 -0.084841885 0.14367916
0.91355866 -0.084685192 0.14693697
1.0066186 -0.087866932 0.14986494
1.0161341 -0.087628588 0.14671941
1.0246845 -0.085265316 0.14479148
1.0335907 -0.081933945 0.14476076
0.8966819 -0.074566841 0.14300177
0.90677959 -0.075331308 0.14350936
0.91318119 -0.074939974 0.1461836
1.0286307 -0.079398453 0.14900804
1.0363741 -0.076578021 0.14618744
0.8989706 -0.067534029 0.1415645
0.90769243 -0.067238629 0.14413026
0.91400385 -0.065389901 0.14563985
0.92427236 -0.06243505 0.14421509
0.90848875 -0.057598978 0.14630663
0.91553348 -0.056326274 0.14558145
0.92493111 -0.054390784 0.14587922
0.93348527 -0.052572168 0.14304511
0.94430727 -0.050323509 0.14049891
0.91608655 -0.047170937 0.14478976
0.9258489 -0.046493948 0.14512943
0.93494242 -0.045598079 0.14631356
0.94359583 -0.044310875 0.14521724
0.95540476 -0.04291239 0.14267966
0.92634332 -0.038508385 0.14933157
0.93530428 -0.036500514 0.1457791
0.94689053 -0.035113752 0.14580758
0.95466769 -0.035721559 0.14677356
0.96446115 -0.033448189 0.14403673
0.97149503 -0.031998504 0.14304514
0.95629251 -0.02556237 0.14723869
0.96565688 -0.027280163 0.14540112
0.97404087 -0.02476914 0.14619748
0.98370397 -0.022479525 0.14300519
0.96646249 -0.017048955 0.14831436
0.97590464 -0.016315971 0.14447618
0.98550504 -0.015684718 0.1475704
0.99509913 -0.014038148 0.14457875
1.0011736 -0.011410087 0.14166023
0.98505253 -0.0083340108 0.14534542
0.99559176 -0.005433239 0.14655463
1.0049376 -0.0061070379 0.14507645
1.0142453 -0.0032211624 0.14345831
1.026198 -0.0018212497 0.14150092
1.0467902 -0.0019035538 0.14807557
1.006395 0.0042591891 0.14740475
1.0155679 0.0037054338 0.14635792
1.0241666 0.0049343724 0.14479259
1.0351363 0.0060124099 0.14436811
1.0449219 0.0054137823 0.14524929
1.0160785 0.011973172 0.1459392
1.0259111 0.014071584 0.14322996
1.033826 0.010416627 0.14338104
1.0410568 0.011064418 0.14450566
0.89996362 -0.14541078 0.15421723
0.90599525 -0.14317791 0.15377322
0.91430998 -0.14269675 0.15147157
0.92480767 -0.14032537 0.15446097
0.89878672 -0.13498825 0.15068948
0.90673161 -0.13562571 0.15271321
0.91513592 -0.13459913 0.15476406
0.9242124 -0.13504601 0.15448833
0.93433338 -0.13207552 0.15272401
0.90636677 -0.12512322 0.15371469
0.91503978 -0.124829 0.15558243
0.92569935 -0.12675291 0.15867266
0.93507797 -0.12716414 0.15645227
0.94571155 -0.12387932 0.15432669
0.95311457 -0.12260235 0.15221886
0.90695149 -0.11499497 0.15303084
0.91534519 -0.1152769 0.1547852
0.9222213 -0.11271866 0.15908043
0.93996364 -0.11952116 0.15752351
0.94720966 -0.11821813 0.15688187
0.95448422 -0.11514562 0.15570799
0.9640609 -0.11281331 0.1534003
0.97410619 -0.11039652 0.15267587
0.90621871 -0.10631994 0.15223226
0.91557622 -0.10518448 0.1547197
0.9215731 -0.10451487 0.15819579
0.95978707 -0.10676451 0.15956134
0.96561432 -0.10791019 0.15620203
0.97508663 -0.10392445 0.15537721
0.98294467 -0.10268905 0.15330017
0.99257916 -0.1012345 0.15142244
0.90672201 -0.094312429 0.15148576
0.91612422 -0.095069148 0.15455426
0.9216646 -0.09479811 0.15745459
0.97858059 -0.095630512 0.15840149
0.98593575 -0.096356973 0.15653102
0.99405348 -0.094393015 0.15478599
1.0030257 -0.092564471 0.15249145
1.0122594 -0.090563893 0.15060902
0.9097805 -0.086170018 0.15158227
0.91644305 -0.084630907 0.15456513
0.92297024 -0.084366955 0.15689592
0.99700409 -0.086763784 0.15712819
1.0058327 -0.085946515 0.15588336
1.015034 -0.08354041 0.15364124
1.0252414 -0.081830099 0.15169013
0.90791196 -0.076168418 0.15223002
0.91635305 -0.074335828 0.15426321
0.92235911 -0.075235896 0.15682527
1.0156684 -0.077467971 0.15769698
1.0254967 -0.074930303 0.15584381
1.0330315 -0.073945865 0.153513
1.0414562 -0.07126645 0.15067664
0.90789682 -0.06406194 0.15116775
0.91680062 -0.064516857 0.15301642
0.92252141 -0.064784922 0.15646139
0.93129307 -0.062223598 0.15866855
1.0365671 -0.066966705 0.15683678
1.0458187 -0.064998187 0.15418628
0.91759092 -0.056253325 0.15405831
0.92357647 -0.055132084 0.15651767
0.93107319 -0.056915492 0.15913208
1.0464511 -0.058444075 0.1584357
1.0559317 -0.055724632 0.15682831
0.91522342 -0.04696244 0.15278393
0.92532659 -0.04618578 0.15601882
0.93486023 -0.044263437 0.15543582
0.94514853 -0.040793512 0.15182284
1.0594354 -0.046833798 0.1596548
0.91975534 -0.039749265 0.15152931
0.9267863 -0.037268512 0.15696594
0.93534607 -0.037028231 0.1558639
0.94431096 -0.035295136 0.15539367
0.95430124 -0.032386787 0.15290301
0.96257734 -0.030783556 0.15392703
0.93782187 -0.026003838 0.1566363
0.94618684 -0.026793301 0.15583789
0.9560498 -0.025467509 0.15480332
0.96420509 -0.024470495 0.15456302
0.9725039 -0.022836745 0.15287094
1.0591302 -0.023451447 0.15864569
0.95493752 -0.016926378 0.15625489
0.96640331 -0.016353395 0.15502308
0.97496325 -0.015145712 0.15585096
0.98394835 -0.012801852 0.15449996
0.99631131 -0.010730505 0.15370609
1.0486878 -0.011835694 0.15611522
1.0555425 -0.013660155 0.1558962
0.96304309 -0.0099882483 0.15854558
0.97500259 -0.0068587898 0.15690948
0.98625755 -0.0061460542 0.15610325
0.9952361 -0.0050391615 0.15497756
1.0027448 -0.0029919744 0.15350926
1.0114858 -0.0035695434 0.15128689
1.0366371 -0.002886951 0.15820605
1.0460972 -0.0052445298 0.15587008
1.0550363 -0.0069390605 0.1530439
0.98790163 0.0029112101 0.15814601
0.99466217 0.0056355596 0.15679625
1.0059855 0.0034463899 0.15489724
1.0146242 0.006072497 0.15418914
1.0258912 0.0063774833 0.15456435
1.0349714 0.0047462746 0.15504809
1.0429604 0.0023757517 0.15362653
1.0511508 0.00067740004 0.15105516
1.0073551 0.011731302 0.15768142
1.0146358 0.014608556 0.15622106
1.0260201 0.011368205 0.15588805
1.0329795 0.010543883 0.1517247
0.91473597 -0.13278392 0.16057056
0.92334747 -0.13085355 0.16238534
0.91588539 -0.12601528 0.16270766
0.92437476 -0.12380767 0.16359423
0.93426657 -0.12286574 0.16323948
0.94399309 -0.12074379 0.16078518
0.90713906 -0.11038411 0.16156185
0.9177345 -0.11514337 0.16378307
0.92559105 -0.11536002 0.16569594
0.93578923 -0.11568989 0.16765393
0.94527012 -0.11400258 0.16446464
0.95424062 -0.11212728 0.16211115
0.91755497 -0.10498635 0.1643362
0.92486668 -0.1047524 0.16495256
0.9316265 -0.10622678 0.1681578
0.9479444 -0.1085355 0.1681093
0.95483655 -0.10670899 0.16602579
0.96410131 -0.10371666 0.16480617
0.97330761 -0.10121279 0.16175435
0.91573709 -0.094747186 0.1623715
0.92520142 -0.094565488 0.16483571
0.93161201 -0.094263956 0.16742486
0.95923573 -0.099352069 0.16755164
0.96756804 -0.097965695 0.16619042
0.97610104 -0.094370842 0.1654814
0.98361415 -0.093820848 0.16279393
0.99280787 -0.091901563 0.16183083
0.91738719 -0.084490418 0.16356926
0.92541122 -0.085020684 0.16404179
0.93222475 -0.084206693 0.16789089
0.98626238 -0.087339111 0.16629881
0.99528676 -0.08461149 0.16521032
1.0025206 -0.083492808 0.16371198
1.0185204 -0.0808139 0.16062176
0.91681886 -0.075639129 0.1626882
0.92582691 -0.07516358 0.16454034
0.93250608 -0.074441299 0.16703071
0.99620372 -0.077518672 0.16927564
1.0057336 -0.076471262 0.16619851
1.014804 -0.073722497 0.16480488
1.0220594 -0.071731038 0.16279133
0.9187094 -0.060136974 0.16296189
0.92631322 -0.065543517 0.16399501
0.93260318 -0.064335227 0.16657025
1.0073776 -0.069390222 0.16717881
1.0181805 -0.068093285 0.1676296
1.0262595 -0.065843903 0.16547164
1.034887 -0.064090088 0.16334786
1.0427577 -0.061541602 0.16292624
0.91731888 -0.055077136 0.16186976
0.92651272 -0.054185353 0.16316837
0.93346798 -0.054505371 0.16669515
0.94069964 -0.058848172 0.16924265
1.0365191 -0.057198174 0.16815212
1.0451987 -0.0551356 0.16603555
1.053568 -0.053258646 0.16330698
1.0602155 -0.051294863 0.16148502
0.92734492 -0.045676168 0.16381265
0.93321991 -0.044758249 0.16628855
0.94085193 -0.049895428 0.16807705
1.0463464 -0.049659077 0.16755307
1.0553679 -0.047199465 0.16664463
1.0644109 -0.044845209 0.1640432
0.92920882 -0.038451552 0.16470213
0.9342469 -0.035145104 0.16592197
0.94355226 -0.033700917 0.16512926
1.0665222 -0.033387031 0.16572872
0.92727065 -0.028968573 0.16634414
0.93672097 -0.027043872 0.16553284
0.94490856 -0.025338085 0.16646864
0.95400947 -0.024438949 0.16253802
0.96102202 -0.021063805 0.16444308
1.0481815 -0.021402061 0.16973895
1.0576528 -0.023414288 0.16650359
1.0646458 -0.025649706 0.16500953
0.93809927 -0.019103289 0.1660063
0.94678777 -0.015522222 0.16690779
0.95533329 -0.01602556 0.16606063
0.96414822 -0.014845593 0.16507135
0.97269022 -0.012613229 0.16300872
0.98316634 -0.011510849 0.16077858
1.0366361 -0.012092888 0.16902965
1.0460006 -0.012952639 0.16597836
1.0551816 -0.015644252 0.16389638
1.0611645 -0.017079895 0.1623403
0.94970876 -0.0094389915 0.16739783
0.95981377 -0.0061288476 0.16651304
0.9668566 -0.0039178729 0.16608758
0.97511548 -0.0059586703 0.16660923
0.98452061 -0.0053157406 0.16332662
0.99302411 -0.0021669269 0.16150364
1.0283164 -0.0035127429 0.16603971
1.0354102 -0.003821265 0.16500947
1.0427583 -0.0072423108 0.16520645
0.97654247 0.0029033422 0.16633022
0.98589218 0.0036565065 0.16549122
0.99511498 0.0043010474 0.16529724
1.0055101 0.0072211251 0.1642779
1.0151544 0.0082765734 0.16531335
1.0248871 0.0056635318 0.16556586
1.0335582 0.0034612825 0.16280317
0.9893353 0.010531843 0.16994943
0.9946022 0.011701087 0.165249
1.0045034 0.013851614 0.16616471
1.0161139 0.011753847 0.16494682
1.0220143 0.011639714 0.16057682
0.92864549 -0.1210112 0.17016226
0.93024725 -0.12152539 0.17063373
0.91795194 -0.1187194 0.1706591
0.92667139 -0.11382674 0.17205772
0.93431216 -0.11271416 0.17277835
0.94344592 -0.11262309 0.17142124
0.92743546 -0.10424769 0.17385437
0.93497789 -0.10456596 0.17478135
0.94507962 -0.10510771 0.1752695
0.95398831 -0.10247095 0.17310582
0.96402347 -0.10045947 0.1711916
0.91883361 -0.095442235 0.17129526
0.92730939 -0.095122434 0.1740267
0.93517995 -0.094827674 0.17479046
0.94303292 -0.095890351 0.17735414
0.95599008 -0.097259082 0.17592008
0.96444613 -0.094692685 0.17430833
0.9724912 -0.092411913 0.17333762
0.98082328 -0.090356141 0.17277801
0.92793179 -0.084197611 0.17357408
0.9350937 -0.084714115 0.17483744
0.94229424 -0.083828926 0.17774045
0.96815461 -0.088578522 0.1773697
0.97661471 -0.085164495 0.17590922
0.98371446 -0.084281966 0.17437938
0.9935137 -0.082644939 0.17240913
0.92862481 -0.073714592 0.17254813
0.93549109 -0.074567512 0.17440546
0.94290245 -0.074029341 0.17663756
0.98692089 -0.078178354 0.17618541
0.99556446 -0.074515074 0.17605489
1.0044631 -0.073175311 0.17361648
1.0134358 -0.070367716 0.17270645
0.92762387 -0.064383551 0.17309487
0.93568313 -0.064799152 0.17448054
0.94231957 -0.065871544 0.17670511
0.99875665 -0.069444209 0.17965287
1.0065629 -0.066933654 0.17744458
1.0147688 -0.064923041 0.17422423
1.0233327 -0.062385824 0.17264013
1.0339242 -0.06008026 0.17098677
0.93599278 -0.055071268 0.17438924
0.94340748 -0.054804873 0.17710589
1.0164905 -0.05754621 0.17902398
1.0263264 -0.055739157 0.17704056
1.0346502 -0.054114025 0.17414573
1.043658 -0.051263273 0.17232837
0.9366594 -0.045122333 0.1735203
0.94405323 -0.045020565 0.17629944
1.0378507 -0.047939628 0.17879386
1.0450001 -0.046479408 0.17574742
1.0553664 -0.043409094 0.17305999
1.0667825 -0.040012084 0.17104673
0.92702663 -0.038442314 0.17124353
0.93705535 -0.035154637 0.17403984
0.94358939 -0.036055371 0.17665376
1.0562471 -0.035823144 0.17813428
1.063831 -0.036002297 0.1736982
0.93781781 -0.027597578 0.17264567
0.94364136 -0.025072489 0.1758543
0.95255965 -0.022233296 0.17697361
1.0469986 -0.024310669 0.17651321
1.0549245 -0.025462309 0.17464307
1.061424 -0.027350787 0.17341627
0.94583142 -0.016566312 0.1761048
0.95455432 -0.014041456 0.17566931
0.96185988 -0.011246408 0.17364295
1.025649 -0.011451662 0.17834342
1.0363995 -0.013595243 0.17555588
1.0451338 -0.016689245 0.17454156
1.050301 -0.017565595 0.17197332
0.94839352 -0.0096046627 0.17909224
0.95575923 -0.00513103 0.17592192
0.96432674 -0.0070727994 0.17499788
0.97360557 -0.0031820801 0.17520979
0.98572958 -0.0017071068 0.17127696
1.0163505 -0.0032586115 0.17690727
1.0248467 -0.0044142976 0.17641042
1.0335206 -0.0079233479 0.17392735
0.95556051 0.0052403212 0.17844439
0.96556294 0.0028530508 0.17643137
0.97487277 0.003654785 0.17651971
0.9849388 0.0050322949 0.17457806
0.99464238 0.0076962453 0.17429344
1.0059299 0.0078897625 0.17672054
1.0143341 0.004769844 0.17463799
1.0221775 0.0015228332 0.17376956
0.97850859 0.011242211 0.17589971
0.98753548 0.01499065 0.17682356
0.99612612 0.013032733 0.1749405
1.0050346 0.011892678 0.17594276
1.0141317 0.010973871 0.17198595
0.92860907 -0.10420477 0.18132235
0.93592429 -0.10115788 0.18054605
0.94301248 -0.1014787 0.18191609
0.92649579 -0.094153069 0.18188615
0.93625218 -0.094247907 0.18289769
0.94506806 -0.094596811 0.1835348
0.95392209 -0.093269728 0.18359149
0.96382129 -0.091847822 0.18232819
0.92888248 -0.087485611 0.18496087
0.93607157 -0.0855195 0.18396249
0.94458836 -0.085143998 0.1852088
0.95442045 -0.086045355 0.18759423
0.96417552 -0.085046411 0.18602407
0.97342622 -0.082938634 0.18325636
0.98347276 -0.081113987 0.18376707
0.93624747 -0.07544817 0.18451153
0.94478929 -0.075107791 0.18475668
0.95230275 -0.075599007 0.18825114
0.96896768 -0.078403756 0.18926471
0.97589749 -0.076995 0.18617328
0.98463774 -0.074917369 0.18377733
0.99444473 -0.073316321 0.18341647
0.93805677 -0.065870427 0.18235627
0.94562805 -0.065527014 0.18527119
0.95316535 -0.066513725 0.18782756
0.9873516 -0.068905249 0.18700464
0.99575132 -0.065695398 0.1863175
1.0047097 -0.063688189 0.18325603
1.0128466 -0.061022375 0.18398334
0.93936354 -0.054876942 0.18402453
0.94569278 -0.055217821 0.18459332
0.9529289 -0.055283129 0.18711983
1.0070002 -0.057310402 0.18736522
1.0154966 -0.054875266 0.185082
1.0242198 -0.053304113 0.18324648
0.93686008 -0.045736294 0.18144099
0.94574571 -0.045385268 0.1836195
0.95247185 -0.044948913 0.18674131
0.96000242 -0.044498071 0.18901306
1.0168862 -0.047931936 0.18939994
1.0253601 -0.047186375 0.18705027
1.0349257 -0.044714965 0.18506971
1.043746 -0.041982658 0.18341723
0.93702507 -0.034815192 0.18152258
0.9461922 -0.035108939 0.18371597
0.95356917 -0.034870941 0.18742783
0.96028399 -0.035084054 0.18727678
1.0376816 -0.038705263 0.18831924
1.0459523 -0.035751507 0.1864942
1.0518622 -0.034424823 0.18311894
1.0612504 -0.034315586 0.18367672
0.93889296 -0.02238512 0.18160805
0.94677633 -0.025304358 0.18311162
0.95317882 -0.024332354 0.18615365
0.96187401 -0.023897216 0.18927036
1.0210783 -0.02078861 0.18929234
1.0366244 -0.022477001 0.18638492
1.0446501 -0.025644749 0.18427064
1.0528556 -0.027847908 0.18334286
0.94819659 -0.015964294 0.18368985
0.95298529 -0.013930117 0.18663178
0.96137249 -0.013983393 0.18690471
1.0164251 -0.013943434 0.18734352
1.025887 -0.014851777 0.18603373
1.0334642 -0.01569771 0.18355632
1.0402489 -0.0188617 0.18464381
0.94544917 -0.005892396 0.18286736
0.95512605 -0.0055735977 0.18596406
0.96390122 -0.0033726559 0.18362798
1.0080673 -0.0031053678 0.18670377
1.0160117 -0.0040487866 0.18456063
1.0238134 -0.0078854114 0.18256983
1.0311671 -0.0099893212 0.18160328
0.95383877 0.0033560949 0.18480805
0.96550238 0.0035630125 0.18613109
0.97303325 0.0051343953 0.18524222
0.98491049 0.0074903416 0.18332426
0.9965148 0.0072224303 0.18582882
1.0042307 0.0048158919 0.18467632
1.0125735 0.00311822 0.18201609
0.96611643 0.012394026 0.18655485
0.97567099 0.013119656 0.18570884
0.98575985 0.013574016 0.18570788
0.99525541 0.012146427 0.18464576
1.0022901 0.011385395 0.18222316
0.93441045 -0.080234587 0.19172062
0.94599003 -0.083513819 0.19264071
0.95333874 -0.083902933 0.19238721
0.96308315 -0.080985747 0.19458629
0.94688666 -0.075138822 0.19380111
0.95524842 -0.074885294 0.1945467
0.96498722 -0.075214364 0.19549556
0.97391832 -0.073489688 0.19398732
0.98286933 -0.070474252 0.19381973
0.94700873 -0.065102711 0.19201574
0.95414782 -0.065368094 0.19512399
0.96510589 -0.065461978 0.19758222
0.97682148 -0.066632584 0.19630066
0.98559302 -0.064630665 0.19496484
0.99376398 -0.062721156 0.19299999
1.0014398 -0.060931087 0.19089967
0.94777542 -0.05535743 0.19420207
0.9549917 -0.055395473 0.19540414
0.96365058 -0.053688344 0.19657737
0.98722255 -0.058949627 0.19570711
0.99561882 -0.056970451 0.19670255
1.0039657 -0.054144796 0.19511732
1.0127788 -0.052408155 0.19263227
0.94769126 -0.045396067 0.1910082
0.95515597 -0.044930056 0.19481239
0.96282864 -0.044048883 0.19696461
1.0064859 -0.047413811 0.19871205
1.0158478 -0.046273932 0.19498777
1.0252609 -0.042622071 0.19377387
0.94901121 -0.033868045 0.19489153
0.95609635 -0.035205901 0.19497156
0.96419311 -0.034069579 0.19651434
1.0247065 -0.038258109 0.19776215
1.0348369 -0.036076769 0.19415011
1.0421612 -0.033000141 0.19265696
0.94828343 -0.02325666 0.19142157
0.95631015 -0.024997706 0.1938618
0.96325082 -0.024799395 0.19704087
0.97203231 -0.020666137 0.19994751
1.0187739 -0.020324349 0.19514626
1.0271065 -0.023421733 0.19635999
1.0345858 -0.026169857 0.19459577
1.0412116 -0.026736863 0.19297726
0.95651019 -0.01499476 0.19366379
0.96354145 -0.014123218 0.19666712
0.97156549 -0.015418872 0.19878666
1.0069789 -0.012522377 0.19863439
1.0155085 -0.013226616 0.1953038
1.0230411 -0.016531639 0.1942755
1.0328789 -0.018771902 0.1912334
0.9492923 -0.0037976503 0.19079816
0.9574241 -0.0046712416 0.19315678
0.96345073 -0.0039460976 0.19675502
0.97116983 -0.0050410619 0.19672751
0.99648601 -0.0019735503 0.19597891
1.0059568 -0.0043633031 0.19426578
1.0126572 -0.00770583 0.19312607
0.95761275 0.0054742843 0.19182177
0.96435809 0.0044594863 0.19567117
0.97251296 0.0065963059 0.19667727
0.98761666 0.0072763115 0.19450039
0.9945612 0.0050408682 0.19524005
1.002543 0.0020478824 0.19278176
0.95987928 0.013904393 0.19164607
0.96538746 0.013952026 0.19640115
0.9746564 0.01371453 0.19502985
0.98437059 0.012925872 0.19395593
0.99314356 0.012311719 0.19104141
0.95827955 -0.081614316 0.20409811
0.95725203 -0.074230477 0.2012908
0.96358627 -0.072353594 0.20148408
0.94488883 -0.065673769 0.200124
0.95676655 -0.06474556 0.20319571
0.96511072 -0.064024262 0.20401737
0.97484124 -0.063690171 0.20379011
0.98431331 -0.06123871 0.20211756
0.95792478 -0.05621491 0.20341353
0.96445793 -0.054843582 0.20543893
0.97474682 -0.056580726 0.20690228
0.98514235 -0.055475563 0.20504466
0.99398941 -0.052283566 0.20411661
1.0048367 -0.05003038 0.20009875
0.95784092 -0.046306275 0.204128
0.96485651 -0.044485182 0.2049807
0.97514409 -0.045376059 0.20818116
0.98855674 -0.049947053 0.20527172
0.99610555 -0.045571081 0.20699286
1.0052398 -0.044898801 0.2050115
1.0139948 -0.042536575 0.20361365
0.95693052 -0.035899624 0.20367035
0.96476823 -0.034446388 0.20437936
0.97362584 -0.035627831 0.20682251
1.0091946 -0.039229371 0.20762005
1.0162153 -0.036544364 0.20588467
1.0241652 -0.034059241 0.20351483
1.0310502 -0.033061333 0.20232788
0.95913768 -0.025477091 0.20304126
0.96534884 -0.024417553 0.20474352
0.97264677 -0.025347225 0.20677958
0.98053181 -0.024355646 0.20920515
1.0154665 -0.022385521 0.20657037
1.0238345 -0.025273602 0.20401037
0.95988631 -0.017032743 0.20245443
0.9661172 -0.015265197 0.20403452
0.97350371 -0.014407255 0.20669243
0.99499851 -0.012944221 0.20817336
1.0053374 -0.014389293 0.20515792
1.0142466 -0.015917908 0.20278409
0.9568249 -0.009547174 0.20110333
0.96700352 -0.0055538923 0.20403884
0.97357941 -0.0042389827 0.20679064
0.98579645 -0.0033691477 0.20652483
0.99518585 -0.0052222982 0.20542617
1.0050448 -0.0082917083 0.20316146
0.95709503 0.0081737638 0.20232007
0.9673425 0.0054167067 0.20288116
0.97440928 0.00483897 0.20585458
0.98535019 0.0047905738 0.20427822
0.99171704 0.0018729344 0.20445511
0.95960522 0.014209449 0.20004587
0.96724665 0.01270293 0.20231959
0.9731946 0.013462461 0.20361185
0.98277354 0.011818692 0.20100963
0.9588629 -0.058666706 0.21102904
0.96698189 -0.053691112 0.21198344
0.9747147 -0.053519353 0.21310371
0.98374504 -0.051504806 0.21281874
0.99087447 -0.050166786 0.21043992
0.9570986 -0.046604395 0.21002966
0.9683038 -0.045126993 0.21322979
0.97430629 -0.044678379 0.21498278
0.98436028 -0.04523186 0.21586968
0.99399805 -0.043068275 0.2148892
1.0018336 -0.041266829 0.21116289
0.96763152 -0.036303066 0.21211295
0.9748323 -0.034114603 0.21546704
0.98305362 -0.035149999 0.21680494
0.99726468 -0.037521776 0.21525916
1.0045252 -0.036253568 0.21574976
1.01395 -0.033308301 0.21291809
1.0207103 -0.031227946 0.21200883
0.96816438 -0.026407754 0.21328993
0.97431332 -0.024939049 0.21475001
0.98294842 -0.026167572 0.21672721
0.99620157 -0.020882785 0.21934509
1.0068884 -0.023521861 0.21623167
1.0132108 -0.025193255 0.21404421
1.0213182 -0.026449502 0.2123003
0.9667905 -0.012465596 0.2130961
0.97616899 -0.014864259 0.2146133
0.9834857 -0.014072186 0.21667899
0.99525779 -0.014346439 0.21555856
1.0030023 -0.016065475 0.21409227
1.0124464 -0.017016089 0.21265799
1.0222719 -0.019786835 0.21025836
0.96846032 -0.0065071583 0.21061325
0.97643566 -0.0052778278 0.21353422
0.98402315 -0.0052690469 0.21536961
0.99458331 -0.0078963041 0.21334629
0.96682411 0.0029274523 0.21100414
0.97622204 0.002803053 0.21257269
0.98317409 0.0031071194 0.21144092
0.97217715 0.01047796 0.21190763
0.97234499 -0.0419989 0.22150545
0.9844839 -0.04212521 0.22221012
0.99039727 -0.043544773 0.22171515
0.96957648 -0.032800257 0.22009467
0.9772138 -0.034667466 0.22291039
0.98489702 -0.034363523 0.22440329
0.99437499 -0.034353115 0.22412786
1.0027086 -0.032208376 0.22220176
0.9772864 -0.025244547 0.22304377
0.98474228 -0.024961442 0.22473174
0.9943102 -0.024173126 0.22670896
1.004747 -0.02609374 0.22213812
1.0100508 -0.027040601 0.22012371
0.97636068 -0.01529069 0.22396402
0.98564517 -0.015518363 0.22366047
0.99437356 -0.017251475 0.22409676
1.0044403 -0.01774615 0.22226444
0.97687978 -0.0079430146 0.22219408
0.98725396 -0.0088152084 0.2230731
0.98142737 -0.030549586 0.23038793
0.98555964 -0.025252899 0.23230337
0.99350566 -0.025659977 0.23124464
0 0 0 1 0 0 0 1 0 0 0 1 0 0 0 0 0 1316 1 0 0
