ply
format ascii 1.0
comment PCL generated
element vertex 1326
property float x
property float y
property float z
element camera 0
property float view_px
property float view_py
property float view_pz
property float x_axisx
property float x_axisy
property float x_axisz
property float y_axisx
property float y_axisy
property float y_axisz
property float z_axisx
property float z_axisy
property float z_axisz
property float focal
property float scalex
property float scaley
property float centerx
property float centery
property int viewportx
property int viewporty
property float k1
property float k2
end_header
0.95478785 0.0085516917 -0.1042643
0.89966768 0.019135356 -0.10107324
0.90649974 0.015837209 -0.10349379
0.91372389 0.014697886 -0.10570025
0.92630875 0.01661114 -0.10497802
0.93522257 0.014604318 -0.10415421
0.94422519 0.012153107 -0.10492605
0.95484275 0.011256448 -0.10499583
0.89695615 0.026750451 -0.10311807
0.90406173 0.024580402 -0.10589245
0.91417259 0.020778626 -0.10529244
0.92136288 0.021696687 -0.1076315
0.88711089 0.035513088 -0.10088581
0.89595079 0.03496391 -0.10575841
0.90126556 0.030950567 -0.10760658
0.88740957 0.046170451 -0.10299639
0.89270031 0.043931194 -0.10598596
0.88769114 0.054938782 -0.10399389
0.89355606 0.055773482 -0.10653649
0.88726604 0.062581763 -0.10234241
0.89558029 0.065555856 -0.10578188
0.90093017 0.064939648 -0.10907377
0.89543837 0.073668115 -0.10380809
0.90329868 0.075796798 -0.10571425
0.89748263 0.081114553 -0.10471652
0.90497106 0.085061908 -0.10324845
0.91295946 0.087613985 -0.10467844
0.90654844 0.094665378 -0.10385503
0.91495252 0.093781523 -0.1043262
0.92234159 0.095668316 -0.10533592
0.9174841 0.10531901 -0.10430536
0.92646927 0.10340604 -0.10573325
0.93441272 0.10564995 -0.10568894
0.92551816 0.1119011 -0.10427046
0.93695611 0.11282867 -0.10336633
0.89899278 0.0082275271 -0.093798913
0.90510976 0.0074642571 -0.094802544
0.91143423 0.0074286163 -0.093789503
0.92707771 0.0092475712 -0.090549625
0.93599361 0.0083691822 -0.092345916
0.94600952 0.0071586603 -0.093763471
0.95568007 0.0064126961 -0.095358387
0.96578014 0.0072583798 -0.094992414
0.89599872 0.014913457 -0.093011394
0.90311974 0.014150998 -0.096456334
0.91558993 0.016169265 -0.094361439
0.92376912 0.01474475 -0.094872937
0.93426251 0.011446585 -0.095787585
0.94485801 0.010953342 -0.096633188
0.950104 0.012543589 -0.09526284
0.88625735 0.025048068 -0.092955247
0.89396977 0.025166012 -0.096486449
0.90360761 0.022855692 -0.096022815
0.9120754 0.02337116 -0.099009752
0.877913 0.03631629 -0.091478348
0.88566548 0.034618605 -0.095839545
0.89439869 0.030448776 -0.096908614
0.87690288 0.044360213 -0.092426874
0.88306952 0.043982051 -0.095568053
0.87719625 0.05532223 -0.093345165
0.88262653 0.054339193 -0.095810808
0.88468987 0.066077508 -0.094140127
0.89241934 0.066654667 -0.098277442
0.88716441 0.074577413 -0.093987554
0.89437777 0.075884186 -0.09559451
0.89636523 0.083882928 -0.09478943
0.90347809 0.086894281 -0.095195629
0.89484352 0.093159989 -0.092164785
0.90613806 0.09442579 -0.091468439
0.91398233 0.095249087 -0.095316477
0.92216802 0.097505189 -0.097084202
0.90443134 0.10043457 -0.095907301
0.91490871 0.10408344 -0.094065547
0.92504573 0.10433755 -0.095052049
0.93192273 0.10742993 -0.095420398
0.92750579 0.11676228 -0.094741657
0.93528688 0.11175838 -0.094572909
0.94576991 0.11526198 -0.09473297
0.93584275 0.12199876 -0.090370029
0.94400114 0.12395877 -0.093104213
0.95020533 -0.0020058155 -0.084141463
0.88868982 0.0081357481 -0.08206626
0.89471263 0.0066919224 -0.085838072
0.90155506 0.0064917053 -0.087277509
0.91579431 0.0083979666 -0.082649097
0.92480981 0.0076877978 -0.083742581
0.93550801 0.006133778 -0.084731139
0.9445256 0.0044732299 -0.084041059
0.95458549 0.0049710367 -0.085337043
0.9652884 0.006537315 -0.08423049
0.9741652 0.0082089128 -0.084516667
0.87737626 0.019656211 -0.081442468
0.88561791 0.014739631 -0.084152855
0.89468741 0.014225926 -0.084878676
0.90513706 0.014821976 -0.084401108
0.91397077 0.013510277 -0.084906541
0.92332935 0.011875026 -0.086090699
0.94538128 0.01094573 -0.087561406
0.97616327 0.011405081 -0.085500717
0.87592691 0.025453363 -0.082879879
0.88441801 0.024003735 -0.086579882
0.89152694 0.021796785 -0.083546489
0.90191513 0.020801961 -0.08740285
0.86878377 0.034199882 -0.081131369
0.87549031 0.034745596 -0.085170358
0.88251251 0.034071617 -0.088657066
0.85989237 0.041582942 -0.080291152
0.86788613 0.045069583 -0.081853643
0.87399077 0.044296566 -0.08661747
0.88117522 0.040419795 -0.08946611
0.86822373 0.052751988 -0.084011704
0.87521029 0.054455053 -0.086860597
0.88016349 0.059530526 -0.088034771
0.86985898 0.061027005 -0.081371158
0.87607628 0.065494142 -0.084119111
0.88330501 0.068152703 -0.087427281
0.87791342 0.075024709 -0.084986486
0.88411403 0.074270613 -0.08576972
0.89079857 0.078071542 -0.083696336
0.88631254 0.083121285 -0.084090523
0.89406931 0.085102007 -0.085556626
0.90225405 0.087516621 -0.086051114
0.88912737 0.092162192 -0.08345145
0.89734489 0.092563145 -0.082845166
0.9049986 0.093764305 -0.085258037
0.91371119 0.097708568 -0.086432472
0.92147499 0.099586539 -0.088323839
0.89904475 0.10315835 -0.080416232
0.90399456 0.10268099 -0.084221631
0.91663569 0.10391551 -0.084025666
0.92439681 0.10728256 -0.085455462
0.9328208 0.10800934 -0.086313762
0.91782618 0.11406179 -0.084213823
0.92778575 0.11321926 -0.0826426
0.93583918 0.11274419 -0.085082881
0.94480914 0.11532833 -0.084114216
0.95480955 0.11561262 -0.084478728
0.93037868 0.12072757 -0.085486352
0.94323552 0.12324539 -0.083912373
0.95672876 0.12482536 -0.08451315
0.92840987 -0.0010388494 -0.071736902
0.93957812 -0.00040355325 -0.071703278
0.94474012 -0.0036774576 -0.079910174
0.87744415 0.0073729083 -0.073500715
0.88404179 0.0058049704 -0.0746518
0.89004284 0.0026676995 -0.077180892
0.90656239 0.008668934 -0.074211396
0.91498268 0.0065556136 -0.074784987
0.92544329 0.0040083798 -0.075311817
0.93498421 0.0033775591 -0.074264973
0.94472963 0.0034052145 -0.075479023
0.95576459 0.0046485048 -0.075317562
0.9653464 0.0068781874 -0.075472102
0.97309494 0.0093201576 -0.075308375
0.86839885 0.017954648 -0.072061643
0.87591702 0.015747024 -0.075060122
0.88445747 0.012841227 -0.077317797
0.89457667 0.014170277 -0.074024715
0.90386486 0.012087812 -0.074673854
0.91494977 0.012115799 -0.077539206
0.96537453 0.010616754 -0.071197279
0.97587287 0.013343705 -0.07508985
0.98322934 0.017498543 -0.075564377
0.86520857 0.025748003 -0.073669598
0.87320876 0.024728308 -0.076835267
0.88045788 0.021077916 -0.074675307
0.9870804 0.023017211 -0.074569166
0.85722148 0.038528126 -0.072071165
0.86468714 0.035159163 -0.075312331
0.87077069 0.034325078 -0.079397671
0.85545063 0.045072556 -0.071707539
0.86422342 0.045098789 -0.075805679
0.87166452 0.048710123 -0.07989274
0.85779005 0.055456396 -0.072259612
0.86391979 0.055687923 -0.07525187
0.87190616 0.058037847 -0.078289658
0.85506421 0.061862051 -0.070999511
0.86652374 0.064624913 -0.074426696
0.87277764 0.066604234 -0.074573055
0.86724412 0.072566211 -0.075553387
0.87531096 0.073680229 -0.074697219
0.88267821 0.076348953 -0.075931028
0.8773098 0.081195042 -0.076270908
0.88440961 0.083650991 -0.074312873
0.89292562 0.086963423 -0.076029107
0.88596702 0.091985121 -0.073568985
0.89463395 0.094077274 -0.074666522
0.90519959 0.096728578 -0.075059243
0.91348052 0.098647051 -0.078208081
0.89532506 0.10377347 -0.073841602
0.90764993 0.10201814 -0.073799118
0.91505265 0.10478684 -0.074394785
0.9237563 0.10751747 -0.076549642
0.93235004 0.10924514 -0.07225439
0.95574927 0.10852197 -0.072519399
0.96579808 0.10809488 -0.07309033
0.90525985 0.11204404 -0.070998788
0.91366214 0.11478993 -0.074401408
0.92586911 0.11259072 -0.075138636
0.93558103 0.11345685 -0.076020047
0.94385004 0.11368003 -0.07524965
0.95448065 0.11367617 -0.075195782
0.96472204 0.11165188 -0.075583205
0.93465793 0.12228212 -0.075328872
0.94634241 0.12260127 -0.075947165
0.96291828 0.12052134 -0.076219797
0.87492102 -0.0014357292 -0.062401094
0.88252676 -0.00094939605 -0.065357432
0.92638427 -0.0014567205 -0.063939452
0.93462712 -0.001289765 -0.063666217
0.94167989 -0.00053220987 -0.063646458
0.86592907 0.0073476881 -0.062763691
0.87491769 0.0052351961 -0.066100299
0.88841659 0.0076333471 -0.063756511
0.8958202 0.0081451423 -0.063391648
0.90501887 0.005650274 -0.064483382
0.91465425 0.0029756599 -0.064743668
0.92483842 0.0022053714 -0.065885775
0.93486691 0.0027748039 -0.066514701
0.94597805 0.0024945829 -0.064553909
0.95552278 0.0053309272 -0.064802274
0.96246684 0.0076883123 -0.065187857
0.8567813 0.01810726 -0.061921995
0.86460418 0.015769869 -0.064348541
0.87231195 0.01555982 -0.066799335
0.88522851 0.013811454 -0.064831778
0.89440954 0.012126424 -0.066680953
0.95993149 0.010293901 -0.061744794
0.96628481 0.012381047 -0.065576665
0.97371244 0.015778078 -0.065401137
0.98153383 0.018039018 -0.066095501
0.84874648 0.02789849 -0.060074639
0.85566783 0.02591865 -0.064633913
0.86360914 0.026044432 -0.067042604
0.87112856 0.021261603 -0.065695226
0.97753996 0.021890551 -0.063306391
0.98508644 0.025492946 -0.06475196
0.9926883 0.025555015 -0.06868732
0.84719878 0.037393637 -0.061621599
0.85477978 0.03493318 -0.065497279
0.86183631 0.03603968 -0.069440857
0.98723435 0.033084702 -0.062481467
0.99452788 0.034401879 -0.065072775
1.0002569 0.037017386 -0.061572134
0.84673214 0.044545285 -0.06286779
0.85453379 0.045545153 -0.066099837
0.99765921 0.042489506 -0.064521015
0.84742594 0.056052864 -0.060441278
0.85516614 0.055135846 -0.064031444
0.86138469 0.057243824 -0.065884657
0.85643053 0.06167797 -0.064896949
0.86467838 0.066238835 -0.065786652
0.85623443 0.070650935 -0.061411053
0.86617601 0.073823787 -0.063977689
0.87341607 0.075953729 -0.065673724
0.8635304 0.082238406 -0.061151385
0.87564945 0.083635554 -0.064313143
0.88440192 0.085277468 -0.065897673
0.89368546 0.088375703 -0.065937094
0.98907191 0.086643085 -0.061021209
0.87534225 0.0908674 -0.066060156
0.88575172 0.093521677 -0.065193281
0.89642984 0.095184952 -0.065609001
0.90317106 0.09858463 -0.064677447
0.96918875 0.099839523 -0.062846005
0.97589612 0.097418815 -0.063023657
0.98567963 0.095306002 -0.064811617
0.88585138 0.10150883 -0.063521415
0.89608657 0.10425638 -0.0622897
0.90471548 0.10380302 -0.064907454
0.91483444 0.10650088 -0.065090358
0.92401218 0.10851637 -0.064454027
0.93359959 0.10951126 -0.064564109
0.94311678 0.10787601 -0.062985368
0.95454895 0.10679452 -0.062779255
0.96496332 0.10513306 -0.064671285
0.97502857 0.10270078 -0.065357015
0.98310488 0.10124514 -0.066747986
0.90591037 0.11387128 -0.060852766
0.91615534 0.11269554 -0.063524485
0.92664999 0.11374932 -0.065274492
0.93590075 0.11283583 -0.064768925
0.94440073 0.11262793 -0.065803692
0.95362961 0.11213695 -0.066060603
0.96378917 0.11434314 -0.065080188
0.97479725 0.1121549 -0.068843305
0.85917735 -0.0044624805 -0.05045246
0.86515033 -0.0028880073 -0.054931276
0.87125546 -0.0014384538 -0.058668476
0.89814812 -0.0013222694 -0.050448835
0.90686035 -0.00086908939 -0.053652566
0.91483742 -0.0021384347 -0.054045036
0.92486686 -0.0028495984 -0.055628475
0.93526685 -0.0013022629 -0.054179057
0.9409467 -0.00076684356 -0.057018321
0.85699898 0.0046817213 -0.05310094
0.86367601 0.0044888323 -0.055320345
0.87588614 0.0072262031 -0.053401418
0.88539749 0.0073239016 -0.054661434
0.89474791 0.0039201174 -0.054817621
0.90528589 0.0019939966 -0.055431284
0.91531175 0.0011539981 -0.056288641
0.92382252 0.00056475401 -0.056047935
0.93506706 0.0015753377 -0.054824665
0.94478101 0.003245004 -0.055824898
0.954283 0.0066353669 -0.055425275
0.96293259 0.0096839666 -0.058717713
0.84765309 0.016958207 -0.052250229
0.85398263 0.015072059 -0.054805104
0.86369872 0.015320401 -0.055102058
0.87519991 0.013287579 -0.056024697
0.8821705 0.011853416 -0.056516781
0.95740855 0.011732845 -0.054283362
0.96513242 0.014749478 -0.054799512
0.97247183 0.017294958 -0.058289535
0.84618163 0.024737878 -0.053936083
0.85418153 0.0239878 -0.05747487
0.9670397 0.021571577 -0.052981168
0.97529554 0.024073152 -0.05387108
0.98252279 0.026685189 -0.05908994
0.81939894 0.035047948 -0.051307052
0.83797109 0.03553167 -0.052105512
0.84398156 0.035068441 -0.055210333
0.85123897 0.033046931 -0.058088399
0.97893715 0.031103224 -0.051883418
0.98497242 0.033431027 -0.053593244
0.99366289 0.038552526 -0.057669401
0.83858609 0.044279903 -0.054031312
0.84472901 0.044874173 -0.055932675
0.85085744 0.043068424 -0.058628205
0.98771459 0.042766102 -0.05330386
0.99443054 0.045444701 -0.055207103
1.0023694 0.048593737 -0.057719827
0.837556 0.052242532 -0.050980262
0.84467781 0.054585896 -0.055036984
0.85284686 0.054911215 -0.055657029
0.99612182 0.055182692 -0.053458113
1.0021441 0.055162679 -0.057810884
0.84669751 0.062271576 -0.053775627
0.85506713 0.065118797 -0.055243388
0.86271161 0.067174904 -0.056261156
0.99715579 0.065610066 -0.052769877
1.0020828 0.064926088 -0.056782451
0.85762924 0.074315548 -0.052880537
0.86541319 0.074882276 -0.055930305
0.87385672 0.079302989 -0.056623477
0.99586707 0.075344287 -0.054486834
0.85940444 0.083846837 -0.054117471
0.86807042 0.083271638 -0.054186508
0.87546897 0.085266538 -0.055145729
0.88364798 0.087268844 -0.054351546
0.97817057 0.087218791 -0.051526666
0.98602283 0.085352316 -0.053589974
0.99322861 0.084695078 -0.056954127
0.87466937 0.095647082 -0.056611866
0.8855297 0.094079576 -0.055402994
0.89347917 0.096126452 -0.054774784
0.94877058 0.096755728 -0.052699983
0.95850611 0.098722085 -0.05470679
0.96631062 0.096893907 -0.054679848
0.97528237 0.094682619 -0.054599851
0.98402303 0.093475208 -0.056646757
0.99300754 0.091541573 -0.059382096
0.88541299 0.10389648 -0.05472783
0.89673281 0.10134995 -0.053635031
0.90643078 0.10490488 -0.05549024
0.91538244 0.10736567 -0.056054283
0.92560351 0.10672628 -0.053825736
0.9345054 0.10732568 -0.054960806
0.94573247 0.10611161 -0.055466548
0.95421135 0.10425777 -0.055318587
0.96410501 0.1029068 -0.056947827
0.97219551 0.10480284 -0.057430692
0.98525184 0.10316369 -0.056791585
0.90169084 0.11387074 -0.054280698
0.91683882 0.11520215 -0.054392744
0.92508101 0.11369544 -0.054048955
0.93502349 0.11542962 -0.056416757
0.94504499 0.11189977 -0.056485772
0.95637256 0.1125039 -0.055928871
0.96675754 0.11029369 -0.056223065
0.90633678 -0.015365511 -0.042296886
0.84714466 -0.0058212131 -0.043293469
0.85398495 -0.002657207 -0.044073936
0.86137724 -0.0061973855 -0.044937201
0.88817942 -0.0011477321 -0.043170266
0.8961693 -0.0020208885 -0.043393377
0.90589869 -0.0028358365 -0.045245741
0.91443217 -0.0033848451 -0.044724528
0.92532861 -0.0028513272 -0.04524548
0.93377793 -0.0010891352 -0.045793392
0.83644861 0.0091702044 -0.040144101
0.8456195 0.0051740045 -0.042807069
0.8540023 0.0033489885 -0.046383172
0.86638552 0.007495997 -0.044804502
0.87563026 0.0057271193 -0.044349521
0.88398284 0.0028979182 -0.045162015
0.89299858 0.0017669455 -0.048064757
0.90707165 0.00072535872 -0.041016813
0.92997676 0.0011316538 -0.040906221
0.93565458 0.0010754819 -0.045220792
0.94473922 0.0047461689 -0.045614816
0.95299882 0.0084071942 -0.046900559
0.83622962 0.01510999 -0.042373143
0.84512401 0.01459666 -0.045079369
0.85391653 0.014146438 -0.046440162
0.86447442 0.012541677 -0.045335829
0.88525099 0.012924761 -0.049415767
0.95558876 0.014410696 -0.04417761
0.96301264 0.017012438 -0.045622069
0.83559567 0.024048598 -0.044302166
0.84325522 0.023344619 -0.047577236
0.85320681 0.021433324 -0.047005579
0.95884931 0.022301048 -0.040233225
0.96700758 0.024057286 -0.043347854
0.97260273 0.025682423 -0.046215765
0.82645559 0.035101708 -0.043019813
0.83428371 0.03493065 -0.045136265
0.84189844 0.031434216 -0.047548663
0.96810073 0.030870944 -0.041136295
0.97627866 0.03418567 -0.044061486
0.98312378 0.036961295 -0.046730671
0.82573432 0.04097544 -0.041490931
0.83474952 0.044175755 -0.045125179
0.84199083 0.04300081 -0.047610704
0.97834694 0.040350854 -0.041220099
0.98566592 0.045166906 -0.044961788
0.82464796 0.050924838 -0.041071109
0.83727133 0.053776298 -0.044640318
0.84358561 0.054745119 -0.046433251
0.98712754 0.055383768 -0.042577583
0.99281776 0.054899905 -0.047113094
1.0010514 0.059283197 -0.049408615
0.83821869 0.063721523 -0.042144462
0.84574032 0.063994728 -0.045647111
0.85303378 0.066141203 -0.046168089
0.98706353 0.065861821 -0.042781968
0.99291444 0.065070868 -0.0460614
0.84800351 0.073926523 -0.04453795
0.85586584 0.075099505 -0.044182409
0.86334062 0.077397853 -0.046790853
0.97600955 0.079573184 -0.041822176
0.98548996 0.075298615 -0.044505067
0.99256009 0.074332088 -0.046650667
1.0002184 0.070474446 -0.047142625
0.85820735 0.082189336 -0.043418519
0.86631584 0.084681153 -0.045508545
0.87312502 0.086807974 -0.045040611
0.88233757 0.08999189 -0.041436486
0.96531802 0.086446129 -0.042064201
0.97513211 0.085732915 -0.045255043
0.98355931 0.083932139 -0.045572769
0.99196863 0.084031306 -0.047109634
0.85937732 0.091229469 -0.041866392
0.8668409 0.095813155 -0.044835567
0.87725687 0.093741581 -0.04474986
0.88487375 0.096576646 -0.04507409
0.89316273 0.09854459 -0.044934459
0.93819034 0.098090485 -0.040087879
0.94644946 0.09790732 -0.043448485
0.95601094 0.095521674 -0.043309886
0.96507788 0.094140209 -0.045625094
0.97265017 0.092854805 -0.04665738
0.8779794 0.10371682 -0.042215556
0.88697577 0.10325685 -0.04326281
0.89659065 0.10245883 -0.045031
0.90434504 0.10451663 -0.045410931
0.91514999 0.10630003 -0.045197442
0.92417634 0.1057516 -0.045000989
0.93503767 0.10482923 -0.046017654
0.94466925 0.10301458 -0.046032559
0.95338535 0.10196368 -0.046889085
0.96340579 0.10217845 -0.047072709
0.97015762 0.10141394 -0.046918124
0.89549041 0.11162312 -0.047734007
0.90557307 0.11480183 -0.044430356
0.91524613 0.11301069 -0.041300848
0.92522532 0.11457045 -0.043136775
0.93365896 0.11413455 -0.045938239
0.9442749 0.11236262 -0.046836168
0.89591086 -0.012067378 -0.03605774
0.90380955 -0.015086398 -0.034560028
0.83754528 -0.0048975218 -0.032699652
0.84457499 -0.0043905377 -0.035133615
0.85125017 -0.0046894252 -0.036962856
0.86557788 -0.00018388033 -0.030735314
0.87563729 -0.001367336 -0.032913473
0.8852368 -0.0026014475 -0.034565508
0.89564711 -0.0046130181 -0.035027064
0.90414858 -0.0056771063 -0.035729315
0.91538072 -0.0049142069 -0.034221672
0.92517781 -0.0033649942 -0.035825502
0.93363547 -0.0016491016 -0.036792461
0.82720125 0.0070193708 -0.031574994
0.83555204 0.0050685015 -0.033977319
0.84358853 0.0035844794 -0.036604699
0.85687637 0.0073024333 -0.03194828
0.86548066 0.0054174243 -0.034886751
0.87448138 0.0024056225 -0.035958223
0.88368016 0.00060541183 -0.038752425
0.92709339 0.0010152981 -0.033973694
0.93532926 0.0033367767 -0.035639912
0.94424063 0.0080062961 -0.035427336
0.82680494 0.014157381 -0.032659128
0.83481723 0.015120219 -0.035651419
0.84538013 0.014004417 -0.035393812
0.8547681 0.01274333 -0.036605008
0.86192024 0.012462527 -0.035269924
0.94696039 0.012735941 -0.032429568
0.95425069 0.015698399 -0.036095411
0.96358395 0.018194973 -0.039451092
0.82626456 0.025057591 -0.035202924
0.83375567 0.024232579 -0.038286503
0.95762795 0.021713097 -0.033850349
0.96459556 0.026226331 -0.036148451
0.97338283 0.026002459 -0.039644152
0.81997025 0.035694897 -0.030066893
0.82458651 0.035058375 -0.035741195
0.83239901 0.037140153 -0.038099188
0.96767193 0.033589106 -0.033027701
0.97314304 0.034759216 -0.037475336
0.81880414 0.04426536 -0.034015626
0.82573956 0.045392692 -0.034778502
0.83192372 0.048557919 -0.037475072
0.9698149 0.042277098 -0.034557372
0.97633696 0.044046748 -0.034528423
0.98134536 0.046494402 -0.038782671
0.81688976 0.052726645 -0.033602174
0.82700992 0.054308757 -0.033873864
0.83442712 0.055866491 -0.035460941
0.8413837 0.058406882 -0.035927378
0.97757685 0.05498448 -0.032632582
0.9842068 0.055269536 -0.037056152
0.82637763 0.061492711 -0.031837344
0.83657998 0.064576685 -0.035453271
0.84494406 0.06633281 -0.034535635
0.85253304 0.068288721 -0.039783433
0.97696078 0.06565664 -0.031705994
0.98325014 0.06426169 -0.035607498
0.83648837 0.071546927 -0.035103932
0.84540176 0.074331202 -0.033830497
0.85515636 0.07591515 -0.035294
0.86172646 0.07850676 -0.034760978
0.96670276 0.07558471 -0.031724162
0.97473776 0.075762525 -0.03532403
0.98292589 0.073754109 -0.037309255
0.84796512 0.08482115 -0.034769803
0.85586607 0.083649203 -0.035448033
0.86501294 0.085070156 -0.035446998
0.87222719 0.087594047 -0.035182852
0.94369388 0.089961231 -0.030690849
0.95617497 0.086461671 -0.033545673
0.96409202 0.086068787 -0.034184396
0.97404051 0.083725192 -0.036438327
0.98126346 0.081471041 -0.037636414
0.85702395 0.092996061 -0.033775747
0.86589384 0.092654482 -0.036306728
0.87620139 0.094491236 -0.036048964
0.88486618 0.096547551 -0.035690323
0.89885676 0.099862874 -0.034235954
0.9094798 0.099781863 -0.03101933
0.91825461 0.099471509 -0.032856047
0.92391437 0.098411083 -0.031111956
0.93501472 0.097045615 -0.033573203
0.94546115 0.095460743 -0.035224129
0.95348549 0.093137369 -0.03597904
0.96216184 0.094960891 -0.037517741
0.86745447 0.10105592 -0.031110853
0.87172204 0.10189049 -0.037262008
0.88693702 0.10360065 -0.032811701
0.89530796 0.10281307 -0.035763785
0.90607548 0.1044561 -0.034423612
0.91576391 0.10408738 -0.0353688
0.92535371 0.10289048 -0.036077887
0.93356222 0.10265434 -0.037346341
0.94108731 0.10331568 -0.033595487
0.95241547 0.10211612 -0.034014225
0.88843715 0.11081392 -0.038938791
0.89406419 0.1131838 -0.033293962
0.90333951 0.11289334 -0.034966946
0.91277349 0.11347809 -0.035410613
0.92723739 0.11077356 -0.034117997
0.94332683 0.1100173 -0.03883934
0.82628793 -0.012736067 -0.020636301
0.83193713 -0.011377182 -0.022293108
0.8969453 -0.013229668 -0.026694115
0.82662296 -0.0043276688 -0.022166874
0.83462328 -0.004830461 -0.025473617
0.84487158 -0.0059662275 -0.028140992
0.85374892 -0.0005787611 -0.02034834
0.86529851 -0.002737243 -0.023005003
0.87504846 -0.0034532424 -0.025410188
0.88483542 -0.0053127813 -0.025689637
0.89422321 -0.0072138421 -0.025692912
0.90569234 -0.0071960595 -0.023866253
0.9156428 -0.004286678 -0.024811486
0.9238016 -0.0025885489 -0.026655821
0.93109691 -0.00054967403 -0.024242491
0.81732917 0.0091962218 -0.022246413
0.82558173 0.0050190142 -0.02430873
0.83346909 0.0063449075 -0.026824882
0.84594321 0.007114897 -0.023825543
0.85601968 0.0042871404 -0.025147593
0.8650921 0.0023554116 -0.027039405
0.8706522 0.0012723207 -0.02727998
0.92735046 0.0026632175 -0.024113236
0.93485636 0.0063911215 -0.025346549
0.94083565 0.0053270757 -0.029690385
0.80905598 0.014457673 -0.020123273
0.81696099 0.015535866 -0.023687541
0.82467878 0.01490615 -0.026761774
0.83328366 0.015548307 -0.025886571
0.84382886 0.012216647 -0.026471227
0.93780172 0.012149641 -0.023323094
0.94523931 0.0148598 -0.025532061
0.95271218 0.017762177 -0.026171461
0.80966979 0.025160909 -0.020030819
0.81472027 0.025299951 -0.024096541
0.82485688 0.024542868 -0.026822254
0.94619352 0.02210664 -0.021668226
0.95442671 0.02468667 -0.025468329
0.96211088 0.028333157 -0.027262783
0.80879629 0.034345269 -0.021617232
0.81613666 0.034470942 -0.026058519
0.82346857 0.037140146 -0.027735898
0.95937604 0.034059048 -0.022049654
0.96378368 0.035301767 -0.025480499
0.97190315 0.038991109 -0.029292494
0.80816579 0.042916119 -0.022408828
0.81610799 0.043670133 -0.024719533
0.82404554 0.046081554 -0.026160397
0.96570534 0.04410151 -0.023173891
0.97143602 0.046515279 -0.026378244
0.81639141 0.052124526 -0.023165058
0.82433796 0.054986186 -0.02524489
0.83176488 0.056933589 -0.025141835
0.96811217 0.054826558 -0.023301557
0.97341251 0.055773392 -0.02607175
0.82754642 0.063635282 -0.025014384
0.83456463 0.064199314 -0.025588464
0.84320068 0.067473643 -0.026854998
0.96717012 0.066031627 -0.022982959
0.97338718 0.064830266 -0.027251385
0.82988644 0.074831367 -0.023032337
0.83768409 0.07284677 -0.024795517
0.84517366 0.075468898 -0.025586415
0.85251141 0.077357262 -0.024556551
0.95649469 0.077177763 -0.022176512
0.9644385 0.074667454 -0.025145169
0.97237384 0.076526344 -0.028296169
0.83928698 0.084708929 -0.022814929
0.84612608 0.086604431 -0.026619345
0.85511708 0.083764583 -0.026221322
0.86392403 0.086904936 -0.026103804
0.93622613 0.087881878 -0.021543697
0.94603455 0.086558029 -0.023904432
0.95426911 0.085403726 -0.025579929
0.9642207 0.082417384 -0.027771374
0.8556602 0.095510021 -0.024011299
0.86614406 0.092785999 -0.024805306
0.87508488 0.095494419 -0.026480412
0.88455445 0.097740777 -0.0245544
0.89455068 0.099238902 -0.027914084
0.9073208 0.097365081 -0.022179564
0.91547424 0.097847909 -0.023668952
0.92597091 0.097070955 -0.025027882
0.93502861 0.093711697 -0.025312971
0.94218683 0.093891621 -0.026184089
0.95208406 0.094038248 -0.027206376
0.96349525 0.093672186 -0.027904212
0.86399251 0.1007725 -0.023788363
0.8768332 0.10474292 -0.025315285
0.88589925 0.10142827 -0.026117852
0.89519268 0.10236812 -0.02529948
0.90455705 0.10233364 -0.026229598
0.91500783 0.10321925 -0.025198765
0.9224782 0.10039213 -0.025729135
0.93265265 0.10367047 -0.026509196
0.94027734 0.10149172 -0.024816245
0.8868531 0.11056931 -0.02477695
0.89791381 0.11200254 -0.024794802
0.90590453 0.11058417 -0.025025517
0.91874707 0.11143592 -0.02898398
0.81844872 -0.011064391 -0.012025841
0.82424164 -0.011471452 -0.01458527
0.87626493 -0.01102782 -0.012976634
0.88500226 -0.011612649 -0.013095136
0.89363807 -0.01127572 -0.014874064
0.90239215 -0.010510107 -0.014617793
0.81586802 -0.0039260788 -0.013260084
0.82432061 -0.0051448783 -0.015639095
0.83214462 -0.0095007047 -0.014458921
0.84508562 -0.00054574013 -0.011530325
0.85582626 -0.0036363024 -0.013392612
0.86518008 -0.0051344191 -0.015211032
0.87414974 -0.007289784 -0.015892502
0.88534302 -0.0082123149 -0.01496847
0.89541 -0.0077963364 -0.016308419
0.90503412 -0.006554611 -0.015163317
0.91480666 -0.0035644874 -0.015110512
0.92261398 -0.0012126286 -0.018831152
0.80688715 0.0069191693 -0.011358187
0.81509244 0.0043773009 -0.01541122
0.82225835 0.0049763322 -0.016151709
0.8359713 0.0065660402 -0.014125042
0.84535486 0.0022881073 -0.014819401
0.85534269 0.0021667778 -0.018025391
0.91847962 0.0034967903 -0.011894844
0.9263522 0.0050086752 -0.015365873
0.93342024 0.0073855403 -0.017486965
0.80565971 0.015934397 -0.013041253
0.81558836 0.015219924 -0.015482164
0.82282495 0.013950232 -0.014345723
0.83066571 0.016168237 -0.019216329
0.92896515 0.010915142 -0.012590796
0.93659621 0.014818388 -0.01413258
0.94434363 0.017540339 -0.017325886
0.79777372 0.022668704 -0.011279032
0.80504745 0.025740542 -0.014729393
0.81274796 0.023542454 -0.016755445
0.93869787 0.020058692 -0.011529624
0.94568044 0.023866085 -0.014598595
0.95277828 0.027517535 -0.017911252
0.79655516 0.033782806 -0.011937293
0.80582482 0.034907494 -0.015634531
0.8125689 0.034446996 -0.017342787
0.9494133 0.034140795 -0.011139552
0.95450616 0.034436721 -0.014605491
0.96215558 0.035820037 -0.019116491
0.79824471 0.041887522 -0.012979377
0.80641246 0.044912428 -0.01349292
0.81395298 0.045431532 -0.016056728
0.85797411 0.047374696 -0.010773301
0.95637852 0.044117123 -0.012128985
0.96356803 0.04515437 -0.017948905
0.80880994 0.054192513 -0.012264162
0.81536466 0.054681625 -0.014738909
0.82419777 0.057229232 -0.015763337
0.95840096 0.055936996 -0.011516879
0.96392697 0.054483879 -0.015646335
0.9731828 0.058960855 -0.019447088
0.81670314 0.063506506 -0.011783242
0.82476741 0.064208053 -0.01415727
0.83356357 0.065745585 -0.016177939
0.95645618 0.066232242 -0.013103751
0.96327007 0.064584896 -0.015854081
0.9737488 0.064299196 -0.019629478
0.82651693 0.072042681 -0.014340418
0.83559686 0.075026058 -0.013323857
0.84364372 0.07573659 -0.016303707
0.93847287 0.079216674 -0.010506868
0.94639975 0.076758109 -0.012583125
0.9545753 0.074332491 -0.015486093
0.96334726 0.07415656 -0.018128941
0.83562362 0.081736542 -0.014000155
0.84681189 0.082700871 -0.015575552
0.85362959 0.085616432 -0.014602086
0.86286801 0.086540267 -0.015773728
0.91940665 0.089857668 -0.012410641
0.92678005 0.087457247 -0.012746683
0.93581861 0.086574122 -0.013963776
0.94486272 0.083320759 -0.015007009
0.95380199 0.083301261 -0.017293125
0.8490994 0.094689339 -0.011214733
0.8564105 0.092966311 -0.014894122
0.86538982 0.094408788 -0.014317893
0.8747406 0.096689798 -0.015186355
0.88444108 0.098935366 -0.01491619
0.89522803 0.098568738 -0.014768842
0.90435708 0.096898556 -0.013864005
0.91573477 0.095710322 -0.015004348
0.92455649 0.093504377 -0.016463507
0.93280751 0.094497032 -0.01631291
0.94284523 0.093669146 -0.012336642
0.86592305 0.1037944 -0.016077325
0.87664509 0.10282537 -0.014727115
0.88392383 0.1039343 -0.014937646
0.89305288 0.1035734 -0.014788836
0.90415937 0.1039442 -0.017667007
0.91292667 0.10453323 -0.01708873
0.92315602 0.10504952 -0.018524647
0.936445 0.10057241 -0.016911656
0.89035249 0.11022782 -0.018009782
0.80587554 -0.011367671 -0.0029567976
0.81414545 -0.012034072 -0.0046597044
0.82226723 -0.013217156 -0.0064700339
0.8547076 -0.010768086 -0.0017104978
0.86567324 -0.011972317 -0.0033494572
0.87528181 -0.012015633 -0.0038641288
0.88459384 -0.011624792 -0.0042245341
0.89309448 -0.010840701 -0.0049562096
0.90069616 -0.010095835 -0.0043539256
0.79929203 -0.0045141629 -0.0023382704
0.80631876 -0.0034827397 -0.0044025132
0.81353319 -0.0064737056 -0.0046156743
0.82431316 -0.006220364 -0.0082122376
0.83672941 -0.0021776631 -0.0032814825
0.84662777 -0.0045059808 -0.0045294608
0.85455108 -0.0062669865 -0.0058524101
0.86412156 -0.0075908927 -0.0068269335
0.87505341 -0.0076560364 -0.0057269665
0.88512897 -0.0093092741 -0.0058383094
0.89620292 -0.0081264311 -0.0045006429
0.90504873 -0.004922742 -0.0050577116
0.91484976 -0.0019344218 -0.0066012535
0.79690456 0.0045620175 -0.0039822664
0.80585647 0.0042568226 -0.0055668587
0.81406415 0.0046311747 -0.0034709072
0.82655418 0.0046164193 -0.0043472382
0.8343401 0.0041433475 -0.0057145976
0.84222472 0.00078702718 -0.0062341299
0.91624016 0.0026168691 -0.0045638704
0.92370445 0.0061422945 -0.0073432941
0.93178636 0.0094673634 -0.0085722059
0.7956596 0.015067395 -0.0043290015
0.80415529 0.014478303 -0.0061785146
0.81439877 0.013369733 -0.0033018687
0.82568562 0.011858761 -0.0097231865
0.91920114 0.010410324 -0.00021976233
0.92676789 0.013376488 -0.0037784392
0.9328618 0.015303731 -0.0066907578
0.94021106 0.01859203 -0.0066441894
0.78785062 0.027990527 -0.0032757819
0.79510969 0.025823524 -0.0045074401
0.80489266 0.025043968 -0.006121939
0.8132394 0.023627123 -0.0057442612
0.84480333 0.028257752 -0.0023070772
0.8552264 0.024685506 -0.0042552352
0.93647557 0.024065604 -0.003210034
0.94380969 0.026849309 -0.0071125049
0.78880262 0.035443347 -0.0036874365
0.79507089 0.03504657 -0.0045614559
0.80440885 0.034574315 -0.0053158682
0.84641415 0.035374749 -0.003104297
0.85208225 0.035894286 -0.0073566861
0.9454239 0.035268292 -0.0046935203
0.789783 0.041911408 -0.0024186969
0.79586029 0.044058986 -0.002778386
0.80394608 0.045685314 -0.0049909363
0.81163692 0.04717565 -0.0082413638
0.84604627 0.045060411 -0.0021874146
0.85185468 0.04537322 -0.0063644052
0.94800025 0.044286672 -0.0022545622
0.95330095 0.045172483 -0.0071648583
0.79855764 0.05124107 -0.0020269752
0.8054294 0.054397624 -0.0033743829
0.81348652 0.055412557 -0.0051115924
0.82105559 0.059488073 -0.0080520026
0.84909779 0.053328782 -0.0036119223
0.8546629 0.054247323 -0.0044531189
0.86004138 0.052777559 -0.0073206425
0.94782805 0.052817918 -0.0011542737
0.95448637 0.054748431 -0.0051178089
0.96092582 0.059432834 -0.0082847476
0.80703372 0.064765602 -0.00082482025
0.81497544 0.064129047 -0.0038277765
0.82502651 0.065007016 -0.0056009823
0.83008903 0.06547495 -0.0071951076
0.94673687 0.06607119 -0.00429133
0.9543395 0.063674033 -0.0050808648
0.96376228 0.068697281 -0.0033238232
0.81749815 0.071944833 -0.0068891644
0.8263647 0.074139871 -0.0050608455
0.83425921 0.074873254 -0.0056046364
0.84338242 0.077918239 -0.0061950302
0.92767954 0.078772172 -0.001842171
0.93607062 0.07535091 -0.0037826956
0.94528437 0.074442498 -0.0058810255
0.95272356 0.075680584 -0.0010129213
0.96058428 0.071415663 -0.0016896129
0.82847697 0.08250767 -0.0048408806
0.83621264 0.083094731 -0.0029723085
0.84494352 0.084508531 -0.0042452486
0.85487902 0.086738877 -0.0061002583
0.86425453 0.089961 -0.0099245831
0.90774488 0.089111209 -0.0061347485
0.91580153 0.086374708 -0.0036421001
0.92619503 0.085298121 -0.0052830139
0.93469173 0.082595825 -0.0072435248
0.94487095 0.083713479 -0.0072195455
0.83977187 0.092164785 -0.0018569529
0.84527636 0.095142066 -0.004042834
0.85683316 0.094479404 -0.0051234006
0.86496693 0.093585491 -0.0058330065
0.87377059 0.097058348 -0.0048857611
0.88440168 0.097063228 -0.0048153889
0.89486957 0.096014194 -0.006114563
0.90527946 0.093352586 -0.0055075344
0.91338974 0.092574924 -0.00633734
0.92433995 0.093194008 -0.0059886454
0.93415308 0.093521237 -0.0064592659
0.85938239 0.10154432 -0.0083505213
0.86526787 0.10455126 -0.0016124547
0.87490964 0.10350376 -0.0076162517
0.88391119 0.1074051 -0.0041907579
0.89389527 0.10648537 -0.0058310032
0.9041205 0.10384858 -0.0056392648
0.91448951 0.10289067 -0.0082146227
0.79951197 -0.010101259 0.0083873272
0.80626184 -0.011977148 0.003536439
0.81583965 -0.012433315 0.0012467414
0.84562325 -0.011874056 0.0074340678
0.85575455 -0.012526147 0.0053916038
0.86565799 -0.012898771 0.005645439
0.87501103 -0.013234979 0.0046286276
0.88435805 -0.011822094 0.0045639658
0.89151341 -0.010507415 0.0022505771
0.79841107 -0.0041566687 0.0054559857
0.8049885 -0.0062581752 0.0037497061
0.81403756 -0.0065528397 0.0029562088
0.82623827 -0.0027028148 0.0054610688
0.83445179 -0.005052858 0.0057321242
0.84381962 -0.0075775413 0.004228361
0.85382068 -0.0081998138 0.0017379522
0.86482871 -0.0081812553 0.0071746521
0.88631791 -0.0089947954 0.0049039032
0.89523464 -0.006869108 0.0050545726
0.90356326 -0.0034330566 0.0040901583
0.91403925 -0.00030317903 0.0043946356
0.79477865 0.0058341464 0.0048107766
0.80488473 0.005502759 0.0032152587
0.81619173 0.0053867749 0.0057127257
0.82369107 0.0037744343 0.0046034129
0.90638238 0.001711385 0.0058966698
0.91442841 0.0058554797 0.004506527
0.92121804 0.0096416473 0.0047543943
0.79432195 0.016215036 0.0041668913
0.8052696 0.0156703 0.0067186388
0.81381965 0.014076289 0.0049984218
0.84712106 0.018148577 0.0081123114
0.85573614 0.017647063 0.0082579255
0.91778773 0.013381048 0.0068534529
0.92481202 0.016199036 0.0040198616
0.93109703 0.018833816 0.0016376078
0.78846556 0.02421098 0.006157448
0.79498321 0.025247134 0.0047993576
0.80450577 0.024932418 0.005952138
0.81225109 0.022813657 0.0065478138
0.83753973 0.025785619 0.0080845952
0.84490174 0.024670577 0.0050231218
0.85415733 0.022864329 0.0031818238
0.92775351 0.024578208 0.0077140275
0.93333954 0.025251603 0.0042324066
0.78929925 0.034921329 0.0034364685
0.79483265 0.036291596 0.0042332471
0.80500382 0.035496145 0.0050888481
0.81131732 0.031134516 0.0084780026
0.83645606 0.035842463 0.0064008478
0.84332013 0.034755867 0.0026550936
0.93678713 0.034071069 0.005065761
0.94352621 0.036189422 0.0030280352
0.78923476 0.045758817 0.0053064823
0.79498613 0.045407511 0.0046776743
0.80472022 0.044827342 0.0055244751
0.83772618 0.044022806 0.0074913162
0.84282559 0.04604141 0.0048361346
0.93790513 0.045011479 0.0072380183
0.94393229 0.045167629 0.0040266342
0.95159757 0.048124194 0.00077271461
0.79621875 0.05304132 0.0048171775
0.80537415 0.055037275 0.0045371666
0.81300431 0.056338381 0.004349506
0.83505738 0.052054495 0.0068811327
0.84733593 0.052781094 0.0058506308
0.85557503 0.055716541 0.0043441323
0.86044645 0.057330951 0.007455349
0.9378826 0.054771215 0.0073476015
0.94399154 0.056003787 0.0048859594
0.79865563 0.060128808 0.0077510178
0.80665421 0.06352327 0.0052057598
0.81450206 0.064874724 0.0039011221
0.82465702 0.067775927 0.0034868412
0.85642403 0.060059875 0.0067885816
0.92800009 0.068102866 0.0094324946
0.93640816 0.065480977 0.0061870185
0.94276893 0.064266726 0.0042269998
0.95017147 0.064177603 0.0005723238
0.81636226 0.074305236 0.0061528012
0.82426953 0.074402124 0.0049622688
0.83369732 0.077472776 0.004594862
0.90981162 0.079702228 0.0093497038
0.91611737 0.078850642 0.0069922567
0.92519653 0.076231271 0.0049220244
0.93371207 0.074365653 0.0038021663
0.94303614 0.073051162 0.0039872825
0.82378894 0.08409977 0.0062133223
0.83614218 0.084337465 0.0053897104
0.84625185 0.085837908 0.0053478223
0.85371929 0.089040458 0.0040405742
0.88499194 0.088741362 0.009267767
0.89549458 0.088272102 0.0061544604
0.90559065 0.08608944 0.0061592916
0.91516936 0.083615318 0.0053229807
0.92467564 0.083367474 0.00346299
0.93279505 0.081984997 0.0041060671
0.83553052 0.092124641 0.0052701533
0.84828645 0.092970014 0.0033510488
0.85481632 0.093130141 0.0034730434
0.86574137 0.094494171 0.0062447563
0.87612838 0.094051667 0.0054496909
0.88538533 0.094265543 0.0045444015
0.89488536 0.092593826 0.0038793227
0.90551585 0.091925956 0.0024626802
0.91742569 0.090916216 0.0039856881
0.92051959 0.096104264 0.0029993355
0.85657835 0.1024642 0.0083153546
0.86144125 0.10374108 0.0025602579
0.8750937 0.10621516 0.0023139715
0.88455975 0.10448086 0.0058042705
0.89521194 0.10169154 0.0054927468
0.90608943 0.10038295 0.0021071136
0.86144656 -0.020018071 0.015772831
0.80507934 -0.010792807 0.010546982
0.83603668 -0.01145563 0.015173362
0.84562689 -0.013021111 0.014949181
0.85490513 -0.014787309 0.015607346
0.86517608 -0.015509268 0.015784694
0.87513655 -0.013587693 0.013808091
0.88271946 -0.011772079 0.012524508
0.80220842 -0.0089468062 0.010802627
0.81698579 -0.0017729355 0.015346657
0.82557309 -0.0046626627 0.015455641
0.83300078 -0.0063662506 0.014538242
0.84248859 -0.0076744147 0.013892955
0.85482824 -0.0093509033 0.013460185
0.88623917 -0.0079391869 0.016141858
0.89420372 -0.0048956429 0.01498657
0.90131998 -0.0013849015 0.013502702
0.80807883 0.0074824672 0.014124046
0.81482399 0.0055187796 0.014481658
0.82312483 0.0043071732 0.01591057
0.83116812 0.0028246338 0.018472716
0.89704305 0.0014019205 0.01719372
0.90509135 0.005101088 0.015485307
0.91283458 0.0075269789 0.01419764
0.92019546 0.0084027052 0.010020494
0.78883654 0.017982006 0.01005587
0.79456955 0.015552863 0.014828622
0.80634576 0.016447555 0.013557973
0.81597495 0.014665076 0.015202886
0.82302284 0.013967842 0.017682679
0.83584082 0.018828159 0.017350577
0.845783 0.016965287 0.016514726
0.8554796 0.016325792 0.016077416
0.86200887 0.015605658 0.014832457
0.90769118 0.012136166 0.018445829
0.91529232 0.014876079 0.014818016
0.9227559 0.018272256 0.011846691
0.79537898 0.02604443 0.015742494
0.80555522 0.025301766 0.014223779
0.81506753 0.024339151 0.016185086
0.82601768 0.025709197 0.017727407
0.8339864 0.025665957 0.014475739
0.84364271 0.023000237 0.012985843
0.8533144 0.02184692 0.011647284
0.91856271 0.022595676 0.017499417
0.92352259 0.025196878 0.014901652
0.79568684 0.035068788 0.015670823
0.80585498 0.034742836 0.014322769
0.81460053 0.033588536 0.016038222
0.82658994 0.034968607 0.016718015
0.8324185 0.035663672 0.012560828
0.91943794 0.030582687 0.019815117
0.92661023 0.034232527 0.01687659
0.93241167 0.035073321 0.012198505
0.78861105 0.044624686 0.013206035
0.79516977 0.045807745 0.014374354
0.80569082 0.044917092 0.014973956
0.81437176 0.044479802 0.016192658
0.8278721 0.04346782 0.0165259
0.83464414 0.045779802 0.014636548
0.8403461 0.047257397 0.012226909
0.92752206 0.042922921 0.018469591
0.93422633 0.044800166 0.014423068
0.79682595 0.054967958 0.013269883
0.80407286 0.055484675 0.014908977
0.81318414 0.054840814 0.015980106
0.82005298 0.053801391 0.019112781
0.83610934 0.052120101 0.015768224
0.84486026 0.054843914 0.014449448
0.85564721 0.056369323 0.015094401
0.861458 0.056091547 0.013751879
0.92768878 0.055361077 0.018249035
0.93432444 0.054982159 0.014020704
0.94222009 0.056033064 0.012908471
0.79761624 0.062722892 0.014845602
0.80460674 0.063910373 0.015538938
0.81405425 0.065834567 0.015273788
0.82560384 0.069297887 0.010380842
0.84875423 0.060034513 0.018462636
0.91790366 0.067704991 0.017337203
0.92467898 0.066084318 0.015946547
0.93407297 0.064201221 0.013409439
0.8053214 0.071397506 0.015697181
0.81552655 0.072355226 0.016154908
0.82521242 0.075661622 0.015624888
0.83471936 0.077830598 0.012698849
0.90568846 0.07776428 0.017740488
0.91534609 0.075432874 0.015290257
0.92415822 0.073635697 0.014198931
0.93345857 0.071530536 0.011311531
0.81598288 0.080310762 0.013468355
0.82549721 0.085275829 0.015961409
0.83476281 0.084040865 0.015947398
0.84443063 0.086848363 0.014216548
0.85307366 0.089600332 0.014149055
0.86773837 0.089314207 0.016871452
0.87664807 0.087727569 0.019118309
0.8854636 0.087981552 0.015082551
0.89623106 0.085817739 0.015168455
0.903871 0.083182871 0.014300282
0.91302186 0.08265391 0.0145433
0.92009729 0.08255744 0.010572851
0.83570135 0.095442981 0.016560003
0.8457799 0.093552552 0.013288482
0.855349 0.092749365 0.015223403
0.86520541 0.092960268 0.01645983
0.87495768 0.093216695 0.013659002
0.88547003 0.092362098 0.015249022
0.89318162 0.091974579 0.014432505
0.90642405 0.09414997 0.014527391
0.84810209 0.1012506 0.015416652
0.85199034 0.10171407 0.01317364
0.86716723 0.10348734 0.014728178
0.87633181 0.10229713 0.015958279
0.88405824 0.10213241 0.012587816
0.85731256 -0.02045384 0.023174759
0.81918371 -0.012032956 0.02959466
0.82762766 -0.010811333 0.026065171
0.8350895 -0.013053958 0.02507857
0.84530789 -0.01428317 0.024597812
0.85509408 -0.016130185 0.025597455
0.86520922 -0.015058677 0.024738234
0.87386203 -0.012676961 0.024913007
0.88485515 -0.011240587 0.022010416
0.80916011 -0.0007545948 0.022038519
0.81620628 -0.0044600898 0.02518956
0.82607508 -0.0047574402 0.02364083
0.83415967 -0.0055054938 0.025820997
0.84326756 -0.0073453984 0.026389237
0.87776744 -0.0068709627 0.028598942
0.88570243 -0.0053330404 0.025295002
0.89379138 -0.0021976051 0.025483478
0.90033412 -0.00094717741 0.026316062
0.7992934 0.0088427663 0.022705615
0.80629867 0.0053929132 0.024204621
0.81361347 0.0065063736 0.025064873
0.82533377 0.0059463433 0.024704255
0.83309382 0.0049839341 0.026925921
0.84124768 0.0011156087 0.029263411
0.88991994 0.00042062998 0.023450613
0.89528453 0.0038077824 0.026954865
0.90215474 0.0071763024 0.02369437
0.79946429 0.015637249 0.022941967
0.80566645 0.014953147 0.024565171
0.81608313 0.01586169 0.024069265
0.82483369 0.015892651 0.024960915
0.83437949 0.015419729 0.026310334
0.84491986 0.014916036 0.025552286
0.85474992 0.015995936 0.024849193
0.86167216 0.015803067 0.024373233
0.90629232 0.014566703 0.024822086
0.91349065 0.018222103 0.022985611
0.79806799 0.025362611 0.022586951
0.80551958 0.025289236 0.02480814
0.81622952 0.026380833 0.023770459
0.82403767 0.024552779 0.022957945
0.83467579 0.022893867 0.022269819
0.84183884 0.023593813 0.027599633
0.87715501 0.027001189 0.029102925
0.88087165 0.029723383 0.029483438
0.90896297 0.023260266 0.029166192
0.91589147 0.024815846 0.024859667
0.92188758 0.026759787 0.02232486
0.79747605 0.034408864 0.022468606
0.80482501 0.035716154 0.024847753
0.81593156 0.035566915 0.024048271
0.82328874 0.03412332 0.022383383
0.91744584 0.033600904 0.027296076
0.92351705 0.035805251 0.02418405
0.93183327 0.03876853 0.020043373
0.79817617 0.045246571 0.022996802
0.80456072 0.04526652 0.025808817
0.81515867 0.045583677 0.025121549
0.82428432 0.045579862 0.024625799
0.83182639 0.049358942 0.024426982
0.86788779 0.0496407 0.029875971
0.87121183 0.047432307 0.026909629
0.91796756 0.043349177 0.028482715
0.92400753 0.045168821 0.025286797
0.93287051 0.046197176 0.022438288
0.79815269 0.054946285 0.02446254
0.8046357 0.055571124 0.025273116
0.81484365 0.055688456 0.025439482
0.82528627 0.053203605 0.026294276
0.83533621 0.053920645 0.025865825
0.84487075 0.05665803 0.025160007
0.8545236 0.05630286 0.024983536
0.86388552 0.053289473 0.025084626
0.87199003 0.05300203 0.026040148
0.91747266 0.055228483 0.02845932
0.924366 0.055151738 0.024682175
0.93390578 0.054125886 0.02255843
0.79757637 0.063890107 0.023572156
0.80554706 0.06553743 0.024872022
0.81456673 0.065841809 0.025227815
0.82336366 0.064224079 0.026018266
0.84873748 0.060590059 0.028357588
0.90737677 0.0686315 0.027426146
0.91559708 0.064659193 0.025246456
0.92321098 0.064079478 0.022604655
0.93253422 0.066131935 0.021787643
0.80763054 0.072120912 0.025298329
0.81653386 0.074383341 0.025230497
0.82406062 0.076259919 0.025474085
0.83409929 0.079102673 0.023222767
0.88858783 0.078162141 0.027758881
0.89577734 0.077482954 0.02559191
0.90505898 0.07434275 0.025634544
0.91371101 0.073684923 0.023741459
0.81326693 0.082848601 0.025765508
0.82658899 0.08221247 0.026421625
0.83525348 0.084906712 0.024989821
0.84374648 0.087473959 0.024546981
0.85488129 0.088979557 0.025923884
0.86489987 0.08769466 0.025062831
0.87489355 0.086527988 0.025117794
0.88533807 0.084036522 0.025180381
0.89397258 0.083914809 0.023421908
0.90406179 0.083440542 0.023108302
0.91583061 0.083609976 0.025474966
0.82712483 0.092398286 0.027793758
0.83472204 0.093905725 0.023971377
0.84515178 0.091875911 0.024285525
0.85451472 0.091792241 0.024587223
0.86358243 0.093227766 0.025229925
0.87621623 0.093216091 0.022097133
0.88836563 0.093789965 0.024678588
0.89600968 0.091316581 0.023624728
0.85675657 0.10067211 0.027468376
0.8610574 0.10183746 0.020322591
0.85526055 -0.020541236 0.030544572
0.81994784 -0.010316491 0.031538248
0.82535428 -0.011145175 0.034361165
0.83652365 -0.01173165 0.033594169
0.84653568 -0.014260788 0.03394128
0.85528857 -0.014805442 0.034876265
0.8646149 -0.013681 0.03557314
0.87278938 -0.011469162 0.033502635
0.81710804 -0.0048184693 0.032603674
0.82471675 -0.0051111248 0.03631619
0.83564317 -0.0056597814 0.033159606
0.84423476 -0.0051961793 0.035020355
0.85260981 -0.0047549265 0.036425512
0.86863881 -0.0090301773 0.039016664
0.87574035 -0.0071544396 0.036017332
0.88341427 -0.0039626416 0.034119252
0.89015573 -0.00033229589 0.030458272
0.80829316 0.0045097917 0.031013474
0.81611663 0.0047158943 0.032773651
0.82530266 0.0057223723 0.035166007
0.83572417 0.0049922494 0.034492634
0.84451288 0.0058774031 0.035976917
0.85231733 0.0061391401 0.03784867
0.88648796 0.0031140121 0.036151681
0.89355606 0.0067298389 0.034006476
0.80775964 0.018396318 0.030433401
0.81590748 0.014411628 0.033103094
0.82466543 0.015465344 0.035205539
0.83423668 0.013662541 0.033041559
0.84524608 0.01277079 0.035030961
0.85552722 0.014302758 0.034784734
0.86377305 0.017520279 0.036835097
0.89720529 0.013190417 0.035819657
0.90377063 0.016633006 0.033042829
0.80725312 0.029690027 0.031799495
0.81541348 0.025512069 0.034222815
0.82371342 0.024059627 0.033351563
0.83546877 0.024272105 0.035544202
0.84539294 0.024250805 0.036535621
0.85705245 0.023408085 0.036074437
0.86643225 0.023753393 0.038463309
0.87456632 0.025470883 0.035996549
0.90609455 0.024788139 0.036049794
0.91235346 0.026910679 0.031208349
0.80781138 0.035514519 0.031913996
0.81347132 0.034748096 0.033906881
0.82038975 0.032162786 0.032500844
0.86703992 0.035297707 0.038884882
0.87516373 0.035304196 0.034355801
0.88240445 0.034912981 0.031494245
0.90837598 0.034152575 0.037704393
0.91411942 0.035348579 0.033365291
0.92103744 0.038087308 0.031431556
0.80816013 0.045634471 0.033770651
0.81487864 0.044840813 0.035134416
0.82286024 0.046429075 0.031888083
0.85668898 0.04940486 0.038426515
0.86558855 0.044949897 0.036060058
0.87450427 0.043451905 0.032818858
0.90887374 0.044616535 0.039329335
0.91523314 0.044817179 0.034998983
0.92115676 0.045303002 0.03060019
0.80579966 0.055691589 0.033625048
0.81459707 0.054661252 0.035598468
0.82556576 0.054791939 0.034489956
0.83422059 0.05465512 0.034149535
0.84416258 0.054901455 0.035768446
0.85466552 0.053423882 0.034260135
0.86269087 0.051931638 0.034447633
0.87070143 0.052816186 0.035574913
0.90793073 0.05735644 0.036770903
0.91413403 0.053994466 0.035472058
0.92313099 0.052793819 0.032314561
0.8068589 0.064385518 0.03346239
0.81381607 0.065310821 0.034400202
0.82500452 0.065299585 0.034880403
0.83374023 0.064269297 0.036370002
0.84048665 0.060856503 0.039424233
0.89628547 0.068175413 0.03682413
0.90548044 0.065373212 0.034616753
0.9153474 0.063208818 0.033741433
0.80561566 0.074158795 0.034640905
0.81534594 0.074931465 0.035085533
0.82440382 0.075754635 0.034941208
0.8326394 0.074182279 0.036119495
