ply
format ascii 1.0
comment PCL generated
element vertex 852
property float x
property float y
property float z
element camera 1
property float view_px
property float view_py
property float view_pz
property float x_axisx
property float x_axisy
property float x_axisz
property float y_axisx
property float y_axisy
property float y_axisz
property float z_axisx
property float z_axisy
property float z_axisz
property float focal
property float scalex
property float scaley
property float centerx
property float centery
property int viewportx
property int viewporty
property float k1
property float k2
end_header
0.93567705 -0.08435142 -0.073742583
0.94537991 -0.073816024 -0.075424597
0.94604349 -0.062707923 -0.073484212
0.95388991 -0.063878536 -0.076229602
0.94917035 -0.058603585 -0.075005069
0.91954428 -0.085700199 -0.060987011
0.92432129 -0.08653684 -0.06293802
0.93121803 -0.085175402 -0.06691391
0.93502462 -0.074999675 -0.066750072
0.93820274 -0.069594435 -0.066857159
0.94371814 -0.063107163 -0.065421104
0.94223458 -0.059321534 -0.063569233
0.90549815 -0.084015548 -0.051566519
0.91255474 -0.083142668 -0.054741621
0.91355598 -0.072805814 -0.050761629
0.9277795 -0.076649338 -0.059020348
0.90570021 -0.06507799 -0.052132666
0.90325147 -0.091724336 -0.043431472
0.89579207 -0.084064893 -0.042550571
0.902228 -0.085103355 -0.045459695
0.91006082 -0.080350474 -0.046929214
0.8895818 -0.073507607 -0.04402782
0.8984521 -0.077486351 -0.0430362
0.90385419 -0.07243403 -0.044366479
0.91201168 -0.071215577 -0.045398086
0.89752835 -0.063204549 -0.042780839
0.90265328 -0.063711405 -0.044796031
0.91749758 -0.063195117 -0.046418928
0.90311557 -0.057697475 -0.044501748
0.91632891 -0.053839725 -0.043202281
0.91757059 -0.044489603 -0.042371746
0.92391348 -0.032552108 -0.041957177
0.9375118 -0.0053206682 -0.040327251
0.90909952 -0.10020289 -0.034212109
0.89861596 -0.09389396 -0.033201851
0.90588361 -0.095952243 -0.037036028
0.89427233 -0.085949838 -0.03193989
0.97943473 -0.081284761 -0.03406167
0.8877092 -0.071727902 -0.032961644
0.89558637 -0.074693665 -0.033421602
0.90237832 -0.073980108 -0.03545168
0.88644791 -0.063822329 -0.031321406
0.89621687 -0.064828232 -0.035951674
0.90348828 -0.063927896 -0.034681328
0.91268182 -0.060866795 -0.032674812
0.89956588 -0.058833629 -0.033115424
0.90421295 -0.058204979 -0.033578411
0.91236955 -0.055597261 -0.034070753
0.92231333 -0.051026337 -0.033048809
0.90958279 -0.042335927 -0.03902027
0.91594821 -0.044710785 -0.03307692
0.9264788 -0.042603537 -0.032802314
0.9184618 -0.037811026 -0.034082495
0.9243086 -0.036355641 -0.033996001
0.91719997 -0.028749049 -0.036000311
0.92789716 -0.025204355 -0.031649504
0.93518287 -0.022551931 -0.036634959
0.92845881 -0.014756313 -0.03205359
0.9323023 -0.012288581 -0.033390705
0.93671042 -0.0064927805 -0.03401785
0.94135046 -0.00044670701 -0.037372455
0.93647027 0.0016930103 -0.034238577
0.94234747 0.0057615936 -0.03083396
0.93884623 0.011734188 -0.031447813
1.0078926 0.036146976 -0.033715114
0.8992219 -0.10111901 -0.023518451
0.90356338 -0.1020197 -0.023681037
0.88714164 -0.090352669 -0.022784229
0.89477277 -0.094735645 -0.023521233
0.88657743 -0.083644167 -0.02380362
0.89130402 -0.08766602 -0.026353043
0.96770269 -0.080777943 -0.020674288
0.97490084 -0.08038649 -0.028856695
0.87998724 -0.071212888 -0.023426279
0.88635069 -0.075398415 -0.024776848
0.89260209 -0.074231975 -0.023962354
0.9752472 -0.075615957 -0.021414354
0.98013198 -0.073363245 -0.02181375
0.87517667 -0.065992355 -0.02089595
0.8851921 -0.062715828 -0.021766007
0.89421558 -0.064371474 -0.024686884
0.90504634 -0.063383557 -0.026629642
0.89543056 -0.057841003 -0.024120122
0.90454626 -0.05621272 -0.024774833
0.91441578 -0.056576595 -0.024318749
0.89267188 -0.042711556 -0.021686694
0.90648186 -0.044349909 -0.023421943
0.91335678 -0.047387596 -0.024492709
0.9226625 -0.043973505 -0.027417863
0.8880794 -0.036844164 -0.023469567
0.89458007 -0.039017279 -0.021538014
0.91626507 -0.036554206 -0.026367217
0.92233306 -0.034962818 -0.022901377
0.88898242 -0.029272258 -0.020656154
0.91897517 -0.026037574 -0.027557753
0.92363739 -0.024664678 -0.026306115
0.91625196 -0.014952362 -0.022805184
0.92742646 -0.016012022 -0.025609264
0.93205172 -0.01242409 -0.02557807
0.92425543 -0.0053142458 -0.021649539
0.93450099 -0.0055694613 -0.024694884
0.94008344 -0.0016644956 -0.026340066
0.93817991 0.0030091207 -0.026995813
0.9419741 0.0053580366 -0.023634
0.9456656 0.015344605 -0.025456641
0.95319492 0.01388557 -0.022024138
0.95436686 0.023830095 -0.0209997
0.96232688 0.020906419 -0.023924202
1.0014997 0.029822558 -0.025913462
0.99719095 0.039912343 -0.025776088
1.0072082 0.035031099 -0.026106177
1.0138261 0.035889182 -0.027747711
0.99993628 0.043148041 -0.022791237
1.0095631 0.040127873 -0.027338579
1.0152518 0.044170842 -0.023898898
0.89976943 -0.10079724 -0.019658498
0.92632866 -0.1060017 -0.01360939
0.88507754 -0.092268921 -0.01363886
0.89279634 -0.097667463 -0.01279525
0.87835103 -0.085935086 -0.012768783
0.88296753 -0.085406773 -0.014313212
0.95668465 -0.08092773 -0.01571694
0.87779546 -0.073241964 -0.014232188
0.88295186 -0.075502232 -0.017145431
0.94906706 -0.074929878 -0.010737538
0.95580924 -0.077296868 -0.013276005
0.9674437 -0.07288564 -0.012368262
0.87603939 -0.065629601 -0.014352934
0.88551009 -0.063965484 -0.015263919
0.89152944 -0.062068105 -0.014044538
0.90202302 -0.062451232 -0.015378661
0.9817549 -0.061319947 -0.01133889
0.88463527 -0.057099998 -0.013246402
0.89703178 -0.054570798 -0.01472493
0.90550166 -0.054318938 -0.01698103
0.88387877 -0.048289035 -0.014945923
0.89607441 -0.047779173 -0.017003577
0.90474677 -0.043699786 -0.014517207
0.91452682 -0.04255309 -0.016264241
0.99748635 -0.046938602 -0.012535736
0.88984501 -0.031023562 -0.019731969
0.89655322 -0.039876163 -0.019668669
0.91602284 -0.035702586 -0.014455824
0.92417204 -0.036485463 -0.016420566
0.90905118 -0.020418584 -0.012303606
0.91620636 -0.024835793 -0.015694175
0.91518599 -0.015106814 -0.015674606
0.92301548 -0.011511107 -0.01642455
0.90882611 -0.0050880313 -0.012890935
0.91686875 -0.0054308423 -0.013904732
0.92888898 -0.0060902499 -0.019250074
0.93245173 -0.0048450106 -0.014283261
0.91505808 0.0011765758 -0.011267473
0.93460655 0.0034811869 -0.015841519
0.94201863 0.0059003322 -0.01763425
0.93804181 0.017218381 -0.012869447
0.94474679 0.015686298 -0.015394455
0.95056736 0.011776468 -0.018668858
0.94817632 0.024304071 -0.013410966
0.95657128 0.025349641 -0.016663706
0.96202195 0.029486179 -0.010199934
0.96090364 0.030439258 -0.012846142
0.97755551 0.036634445 -0.013137564
1.0143849 0.046093583 -0.019638801
1.0061969 0.053434651 -0.014003699
0.88959372 -0.1015534 -0.0034389235
0.89587128 -0.10680337 -0.0009585619
0.90647471 -0.10421608 -0.0032437653
0.91581988 -0.10735517 -0.0025157407
0.92509508 -0.1055114 -0.0045220056
0.87646127 -0.090886541 -0.0059919818
0.88394457 -0.093606234 -0.0048466944
0.89256799 -0.099003017 -0.0070016831
0.90242904 -0.099081054 -0.0022435635
0.87626272 -0.085705936 -0.0044659236
0.88177133 -0.087159552 -0.0070900414
0.9376629 -0.083496809 -0.0040245256
0.94108546 -0.08311931 -0.0065001249
0.96058911 -0.080825597 -0.0084238052
0.87476766 -0.074956685 -0.005415028
0.88058639 -0.075719036 -0.0082435599
0.93225086 -0.079669207 -0.0011708736
0.94571972 -0.07468345 -0.0041608214
0.95492798 -0.073939472 -0.0062711132
0.96412909 -0.073101826 -0.0058510378
0.8744477 -0.06554357 -0.0044494821
0.88423705 -0.060719192 -0.0082523376
0.95390111 -0.065608867 -0.0024994512
0.96537101 -0.066132814 -0.0035589768
0.97353345 -0.065302424 -0.0090488195
0.876535 -0.058627248 -0.0031358302
0.88306296 -0.056707203 -0.0045334473
0.8955428 -0.053527515 -0.0071917041
0.90219581 -0.054443773 -0.0059451242
0.95544845 -0.056288056 -0.0032163262
0.96046638 -0.059873492 -0.00035461783
0.97723627 -0.05633682 -0.0061614313
0.98223245 -0.054446392 -0.006307587
0.89759254 -0.044454895 -0.0040495722
0.90504748 -0.043642942 -0.0070737223
0.91340584 -0.040617436 -0.006820715
0.98955846 -0.042757809 -0.0025933981
0.99510622 -0.041305106 -0.0055321059
1.0007926 -0.041074067 -0.009390533
0.90431929 -0.036287021 -0.0027986083
0.91322994 -0.034825955 -0.0065597007
0.99567866 -0.037216742 -0.0030467312
1.0007567 -0.033194423 -0.0033349693
0.90572596 -0.024591304 -0.0022858796
0.91246176 -0.024891742 -0.0055166911
0.89824229 -0.013405864 -0.0042384565
0.90561348 -0.016269771 -0.0041184137
0.91232896 -0.013250507 -0.0058756806
0.90599978 -0.0073757889 -0.0017756552
0.91401613 -0.0037881718 -0.0038840123
0.92372173 -0.0049588899 -0.007134717
0.93350887 -0.0031340746 -0.007700338
0.91668016 0.0030600298 -0.0026232169
0.92387742 0.005863945 -0.0045132535
0.93741697 0.0061327964 -0.006648629
0.91606152 0.010691643 -0.0025838166
0.92763758 0.015786633 -0.0046197325
0.93356639 0.015535706 -0.0050960439
0.94312567 0.012537103 -0.007281757
0.9374615 0.022437841 -0.0045154509
0.94631875 0.026788116 -0.0041054501
0.95267522 0.026946723 -0.0072511397
0.95736647 0.033130925 -0.0032797407
0.96599364 0.039831132 -0.0022318512
0.97408509 0.042538024 -0.0049460419
0.98204482 0.051506907 -0.0020507574
1.0020348 0.055160999 -0.0062219352
0.89625317 -0.10462948 0.0062245927
0.90528005 -0.10641395 0.005635336
0.9159075 -0.10512117 0.0049519013
0.92391634 -0.10249377 0.0052332482
0.87603635 -0.093096465 0.0052169752
0.88338548 -0.09648373 0.0034931111
0.91785413 -0.097411849 0.0092203217
0.92327821 -0.099783748 0.0029678345
0.86878383 -0.082579702 0.0059911236
0.87284726 -0.084209017 0.004012398
0.92668414 -0.082399845 0.0063445568
0.93387151 -0.082389511 0.0029020309
0.86654139 -0.075086355 0.0078765126
0.87408721 -0.074359752 0.0046442552
0.9271841 -0.078517526 0.0089021623
0.93484342 -0.077113226 0.0060113668
0.94101167 -0.070110902 0.0043687224
0.87457716 -0.064892024 0.0056684902
0.88367283 -0.065780595 0.0043592495
0.939273 -0.067965806 0.0065557361
0.94526017 -0.06829527 0.0032351464
0.95410872 -0.064269349 0.0020050507
0.96435565 -0.061311185 0.0022832851
0.87613058 -0.056082126 0.0052040615
0.88409603 -0.05369826 0.0091894297
0.90075058 -0.050510764 0.0041503692
0.95750087 -0.057004169 0.0020025522
0.96521205 -0.056355145 0.0039016455
0.97073656 -0.054739024 0.005755981
0.87948459 -0.0488711 0.0043613017
0.88380969 -0.044583008 0.0057536215
0.89520234 -0.043340009 0.0059999558
0.9040491 -0.045087926 0.00057884399
0.96706033 -0.048540384 0.0060022473
0.97545457 -0.04516679 0.0065098638
0.9851836 -0.043124788 0.0038851381
0.88474154 -0.034255177 0.0069170147
0.89482868 -0.034908287 0.0074899695
0.90548444 -0.034957286 0.0033480721
0.97868329 -0.039262809 0.0076581836
0.98590994 -0.038304348 0.0077819228
0.99653625 -0.031691611 0.0022288363
0.88878053 -0.023727596 0.0080822408
0.89550507 -0.024348963 0.00533274
0.90228695 -0.025330115 0.0026145307
0.99669224 -0.023874506 0.0078017116
0.89611006 -0.016576931 0.0057801185
0.9036544 -0.013701324 0.0054569179
0.92338598 -0.010670066 0.0087504089
1.0085444 -0.017769217 0.008122921
0.89932442 -0.0055865347 0.0053688735
0.90554547 -0.005368771 0.0050279098
0.91295463 -0.0047260625 0.0061554671
0.92420083 -0.0060935318 0.0074253827
0.90954643 0.0044772029 0.0039237738
0.9150359 0.0043173013 0.0059542134
0.92278874 0.0086379796 0.0031448784
0.9158901 0.011354595 0.0062498809
0.92443937 0.0145324 0.0048037483
0.9392271 0.018753946 0.0072860122
0.94045949 0.018268108 0.0076849908
0.92746377 0.021645255 0.0053935796
0.93520343 0.02225141 0.0032619676
0.94458908 0.024014592 0.004348659
0.95481914 0.026743621 0.0053082234
0.96415639 0.026846124 0.0071534184
0.96481997 0.034981094 0.0066281762
0.96903139 0.041854888 0.0046974123
0.97392392 0.046922483 0.0043409728
0.97645313 0.052501481 0.0063860617
0.98228693 0.054824218 0.0046028979
0.98696113 0.061026782 0.0044393539
0.87922233 -0.10218477 0.016246527
0.88441688 -0.10188714 0.017113518
0.89594108 -0.10353531 0.014758319
0.90406483 -0.10366005 0.01479494
0.91513968 -0.10206319 0.0146337
0.85712844 -0.092003301 0.019400358
0.86931652 -0.092803985 0.01282683
0.87542719 -0.094938166 0.015433493
0.88299227 -0.0991209 0.01292415
0.89770639 -0.098109499 0.01819402
0.90491283 -0.09781336 0.018762168
0.91375625 -0.097218648 0.011756957
0.85668737 -0.087082714 0.019048735
0.86664146 -0.086047426 0.015800539
0.8720088 -0.086112313 0.015493684
0.91743082 -0.083783664 0.017997941
0.92220801 -0.082899697 0.016727632
0.86815006 -0.07509809 0.016421253
0.87231725 -0.074293867 0.015244797
0.92614228 -0.076096028 0.015655801
0.93404323 -0.071630605 0.014086922
0.86691093 -0.066780962 0.013426266
0.87408036 -0.065677628 0.015858527
0.88131779 -0.063579902 0.011258298
0.9249754 -0.069508821 0.019664943
0.93390781 -0.068767168 0.017607182
0.9422307 -0.067050606 0.016038209
0.8758812 -0.055169936 0.01586505
0.88198 -0.055132117 0.013028844
0.87827855 -0.046556491 0.015549024
0.88479894 -0.044479027 0.013897335
0.88636637 -0.034231883 0.015088881
0.89238566 -0.034145389 0.01479501
0.9780736 -0.032573868 0.01257813
0.98358124 -0.033371437 0.013645738
0.88816708 -0.025544934 0.015388324
0.8915239 -0.024726242 0.01430928
0.98564547 -0.024636704 0.017322771
0.99275237 -0.023850925 0.015675187
0.88661474 -0.015371189 0.016904399
0.89452428 -0.014292498 0.014075373
0.98613763 -0.017618096 0.018770665
0.99875724 -0.015655577 0.018293738
1.0033308 -0.014892508 0.01627632
0.87828231 -0.0054558367 0.0157822
0.88474756 -0.0063506025 0.0177115
0.89575344 -0.0020159259 0.017340176
0.90188676 -0.002684166 0.014668877
0.91621602 -0.00291875 0.01359348
0.98456705 -0.0098747909 0.017443299
0.88219476 0.0023202896 0.019670725
0.89516485 0.00011873245 0.014686674
0.90463883 0.0035249537 0.015905906
0.9147523 0.0072172978 0.012633014
0.90767324 0.012149569 0.017581359
0.91628557 0.015137842 0.016441636
0.92326117 0.01725103 0.012728056
0.93489337 0.01730296 0.0121096
0.94197273 0.018179098 0.016703567
0.92431784 0.021753257 0.015156692
0.93470258 0.021894312 0.014047289
0.9452945 0.02417573 0.014356661
0.95352352 0.025497202 0.015155397
0.96197605 0.027229901 0.013877218
0.94793594 0.032882854 0.018775463
0.95786989 0.031593263 0.011991024
0.96316218 0.037183058 0.015032247
0.94019938 0.043677062 0.01888451
0.96684062 0.043336298 0.015485985
0.97028708 0.046982437 0.013850808
0.93660891 0.050770819 0.016189337
0.96958351 0.055891752 0.016025215
0.9743619 0.055061981 0.015493698
0.97539115 0.061144304 0.017492881
0.98428249 0.064197354 0.01440913
0.99212104 0.065866046 0.014912794
0.87930095 -0.10174043 0.021672042
0.8836537 -0.10193115 0.02335472
0.89450556 -0.1003037 0.022179917
0.903943 -0.10176638 0.021388069
0.87654138 -0.094681352 0.025029408
0.88389981 -0.098564968 0.026422389
0.89522356 -0.096247606 0.026112486
0.90487045 -0.095306516 0.024306856
0.91131055 -0.09260945 0.022853792
0.85658699 -0.087666452 0.021237582
0.86738163 -0.084657818 0.023009339
0.87424409 -0.084906459 0.024703695
0.89852375 -0.088533893 0.029458106
0.90623707 -0.086908869 0.026588151
0.91434121 -0.08134453 0.024321228
0.92290485 -0.080206424 0.021107644
0.86833382 -0.07460881 0.021468496
0.87367249 -0.07455761 0.02547545
0.8808794 -0.078405619 0.028799534
0.91649503 -0.077418007 0.025996208
0.92629403 -0.070365205 0.0244205
0.86915231 -0.067870915 0.02353338
0.87305665 -0.06573645 0.025521073
0.92850554 -0.06568101 0.023846149
0.9343698 -0.066052556 0.025116801
0.945158 -0.063396819 0.026566243
0.8756724 -0.055471987 0.026550962
0.88128114 -0.052055884 0.025238389
0.94918871 -0.059561238 0.028137147
0.95374775 -0.054923281 0.027813606
0.87836772 -0.046333961 0.025463184
0.88321698 -0.045016069 0.025202688
0.95686048 -0.049534932 0.028822005
0.87885964 -0.03598401 0.0248028
0.88395572 -0.034777366 0.025241632
0.89435267 -0.035090022 0.023806145
0.88411671 -0.025058115 0.024164882
0.89043069 -0.024050068 0.020824226
0.98598164 -0.024236819 0.02223444
0.99180549 -0.023362875 0.023240387
0.87724721 -0.010732099 0.022472501
0.88409811 -0.01397335 0.024450867
0.89479524 -0.014790479 0.022432195
0.98605329 -0.015217786 0.023953991
0.99286199 -0.014683734 0.024620248
0.87608254 -0.0088267326 0.022302888
0.88459772 -0.0048870072 0.024957499
0.8920908 -0.0023735701 0.026721144
0.90218759 -0.0012463033 0.0297058
0.98725086 -0.0060376246 0.027580261
0.99490613 -0.0047029066 0.028070718
1.0023266 -0.0062451861 0.024271607
0.88733935 0.00058484077 0.023251176
0.89525247 0.0031661082 0.026430089
0.90553772 0.0047219866 0.024955863
0.91126436 0.0063091144 0.020784492
0.8840456 0.017065525 0.027605191
0.89443833 0.015388943 0.028072789
0.90752578 0.01597956 0.025314046
0.9137401 0.016047785 0.022004785
0.92340004 0.019568637 0.020202026
0.93441188 0.01853703 0.022652276
0.94338149 0.019111231 0.026894763
0.89198005 0.026338682 0.029397368
0.90546912 0.020243019 0.029216111
0.91568154 0.022705637 0.026737325
0.92337829 0.02393499 0.025495404
0.93501264 0.022921437 0.02447152
0.94526839 0.025868282 0.024763471
0.95322996 0.028831206 0.022786325
0.89029217 0.032016397 0.02888298
0.91945255 0.03160876 0.022681355
0.946495 0.034399912 0.027641747
0.95438677 0.034988776 0.02445328
0.96399325 0.037995055 0.021863267
0.93822014 0.045281544 0.023202658
0.94427836 0.044570439 0.024610441
0.95594794 0.041177679 0.025064209
0.96651894 0.045378905 0.023766501
0.97148812 0.046028972 0.02491188
0.93772912 0.053375006 0.021295935
0.94257092 0.053904183 0.022800177
0.96818298 0.056427918 0.024239574
0.97352421 0.053003445 0.023475401
0.96836758 0.063088894 0.029577404
0.97465324 0.066260345 0.025570666
0.98346245 0.065758511 0.023539379
0.99089217 0.068012863 0.022194445
0.98497224 0.070723206 0.024085641
0.87971443 -0.10127893 0.036158621
0.87790895 -0.093163371 0.032365348
0.88550699 -0.093783081 0.034011867
0.89435887 -0.091802686 0.032895949
0.87760305 -0.08563447 0.033060666
0.88340563 -0.084943682 0.035016097
0.89472204 -0.085696675 0.035645913
0.90269727 -0.084686339 0.033980317
0.87736064 -0.074598961 0.033007216
0.88298535 -0.075260676 0.036901828
0.89469099 -0.078616336 0.038389966
0.90901726 -0.079651862 0.035432994
0.91484737 -0.078077883 0.030398518
0.87724137 -0.06517309 0.034029633
0.88244706 -0.064569302 0.03703839
0.92771524 -0.06475085 0.03213571
0.93517828 -0.061774649 0.035494871
0.94142425 -0.0631845 0.030454904
0.87661719 -0.054541677 0.034306962
0.88150948 -0.055036105 0.03611844
0.93920982 -0.059789389 0.03910777
0.94430691 -0.05579197 0.035463527
0.95409626 -0.052143447 0.03260424
0.87767357 -0.046670809 0.035977021
0.88136512 -0.045390528 0.033074778
0.94527459 -0.049595103 0.038766325
0.95596975 -0.04721465 0.034066893
0.96265131 -0.043152079 0.033935774
0.87800789 -0.037123367 0.036457829
0.88260806 -0.0331598 0.035986979
0.96438515 -0.035675012 0.038131092
0.87781161 -0.02519387 0.033157136
0.88319117 -0.024489552 0.035545703
0.87913644 -0.018830061 0.031101599
0.88589066 -0.014489071 0.034140274
0.8876667 -0.006659097 0.035056133
0.89266938 -0.0035492759 0.035014369
0.97851706 -0.0054064114 0.035491526
0.99454945 -0.0037221194 0.032857548
0.88911074 0.003009757 0.037053965
0.89540118 0.0059470171 0.034827583
0.98579299 0.00077186711 0.033430547
0.88396227 0.015202668 0.035946302
0.89594698 0.014351196 0.035084181
0.90382963 0.016475774 0.035197537
0.91176718 0.018824238 0.034133766
0.89719409 0.023716947 0.032718748
0.90519589 0.020435393 0.033737708
0.91590428 0.023444211 0.035945363
0.92444682 0.02498161 0.034227956
0.93527502 0.026275879 0.033290099
0.94105005 0.025902212 0.030224279
0.89300931 0.033792377 0.032831669
0.92749405 0.030938283 0.034887061
0.93638897 0.03371878 0.035669856
0.94551122 0.034799863 0.034058459
0.95197088 0.038016245 0.032963954
0.96035612 0.039823234 0.030343145
0.94541562 0.042707086 0.039980277
0.95614547 0.045542352 0.034626018
0.96731055 0.048232123 0.030624131
0.9443332 0.051008433 0.038459271
0.95897919 0.051793009 0.034358948
0.96298528 0.055557881 0.033613201
0.95572627 0.061811663 0.036905199
0.9650138 0.064662032 0.03621218
0.9755134 0.066499434 0.034371171
0.98223525 0.067368627 0.0349406
0.88063866 -0.098302245 0.040783122
0.88673192 -0.081824444 0.041447747
0.89610583 -0.081464544 0.042747762
0.90105826 -0.081434548 0.041910227
0.88623327 -0.07322263 0.0444782
0.89429897 -0.075136974 0.044866566
0.90412098 -0.073661007 0.046008829
0.87856269 -0.060806625 0.041372463
0.88576186 -0.065010436 0.044089176
0.89306939 -0.066577494 0.047472969
0.90515524 -0.06789948 0.047255252
0.87884223 -0.054650903 0.042210452
0.88410521 -0.055979814 0.044327583
0.89063275 -0.05932828 0.048170257
0.929703 -0.055662345 0.047010541
0.93610847 -0.054312974 0.042695336
0.94426942 -0.054084837 0.040801346
0.8782391 -0.044430848 0.045275707
0.88098484 -0.045394994 0.045403946
0.9377051 -0.04633674 0.048869967
0.94475734 -0.044044867 0.045932174
0.95239729 -0.043404296 0.043392733
0.87876523 -0.035478577 0.044483569
0.88289899 -0.03318999 0.045627058
0.94558275 -0.038637333 0.048205316
0.9553687 -0.035990328 0.045266569
0.96414071 -0.032115303 0.043837529
0.97561252 -0.033234671 0.043632716
0.98124248 -0.037104715 0.044326227
0.88443345 -0.025892438 0.044358455
0.89251864 -0.024267551 0.049832575
0.95711374 -0.027994219 0.047074944
0.96635604 -0.025704635 0.046579409
0.97103328 -0.026516186 0.043894947
0.88703668 -0.015560846 0.044117436
0.89300817 -0.012666207 0.046841364
0.88830441 -0.0062460601 0.041280024
0.89352489 -0.0047332318 0.045629214
0.88944834 0.004591763 0.043026827
0.89578253 0.0049742153 0.044926222
0.9021374 0.0085004177 0.046538796
0.89722973 0.01301227 0.044942547
0.90274155 0.016651878 0.044024371
0.91136837 0.018969022 0.045244575
0.90706331 0.021719575 0.044171371
0.91464889 0.023753496 0.045612879
0.92374408 0.027543124 0.043611486
0.92632216 0.034944072 0.045146991
0.93411767 0.037469454 0.043557007
0.94635439 0.038278639 0.043260559
0.95280999 0.039357841 0.041046306
0.92769873 0.042038992 0.047492258
0.9342559 0.045417726 0.046553854
0.94648409 0.047329247 0.043790743
0.9547891 0.04468089 0.042597476
0.93533611 0.050762486 0.046200056
0.94551075 0.055380411 0.045656621
0.95315784 0.056401554 0.04455718
0.95623809 0.063166291 0.045148842
0.96535611 0.066240586 0.044973634
0.97514933 0.064710461 0.043969113
0.98043889 0.06364271 0.046431303
0.89719403 -0.073186614 0.052532118
0.88892198 -0.061148435 0.053348847
0.89552861 -0.064449042 0.055238422
0.90519315 -0.064298183 0.054479551
0.91312188 -0.06255921 0.053323116
0.92096448 -0.060197979 0.053392977
0.88630962 -0.05319722 0.054149497
0.8925935 -0.056070976 0.058292605
0.906322 -0.057336561 0.058794059
0.91556251 -0.057563312 0.055760976
0.92490107 -0.053029623 0.054658994
0.87932426 -0.041984957 0.051618308
0.885019 -0.044886202 0.054890338
0.89251536 -0.041073352 0.058439963
0.92691147 -0.045030236 0.057940878
0.93230468 -0.045213833 0.056283504
0.87819672 -0.037652105 0.052209746
0.88441497 -0.035362992 0.055979934
0.89103526 -0.035788648 0.058273882
0.93859959 -0.038715288 0.052024424
0.94594657 -0.034586783 0.054580558
0.95372242 -0.033808909 0.053105813
0.88642079 -0.025458558 0.055888847
0.89156234 -0.021303713 0.051722202
0.94905853 -0.028407313 0.057916462
0.95629311 -0.02494801 0.054752164
0.96519208 -0.0237577 0.053146876
0.88948649 -0.013416857 0.053466219
0.89298713 -0.013954856 0.054513946
0.96447361 -0.019272298 0.053487301
0.89525414 -0.0049979617 0.054429129
0.89783818 0.0033077381 0.054841492
0.90252244 0.0071910741 0.057014443
0.89873838 0.01045233 0.053004842
0.90471512 0.014290765 0.055590272
0.91311109 0.017982811 0.056456774
0.90541881 0.020573577 0.054475415
0.91645819 0.023871731 0.054851409
0.9230088 0.027060848 0.053451259
0.92702025 0.034345925 0.054524232
0.93204254 0.03807503 0.056660805
0.94823301 0.039125741 0.059632748
0.93469846 0.045335822 0.053729672
0.9442398 0.045962799 0.056975275
0.93856883 0.052758265 0.05557536
0.9448185 0.055892456 0.054442979
0.95346963 0.056997821 0.051209562
0.94674015 0.061143979 0.058518335
0.95571595 0.063135587 0.054302804
0.96337181 0.064428113 0.054839447
0.97105002 0.062370569 0.05190609
0.89562452 -0.061601531 0.062970139
0.90616077 -0.061989367 0.06186083
0.91305393 -0.060586654 0.060597807
0.88850147 -0.054828867 0.061780691
0.89490694 -0.055312149 0.064111017
0.90515733 -0.054732189 0.064653881
0.91411364 -0.053602163 0.063756734
0.92289245 -0.053044885 0.062645897
0.88752294 -0.044009533 0.061889
0.8949461 -0.044582225 0.065090336
0.90391141 -0.04541697 0.067564979
0.91450661 -0.04585629 0.067255989
0.92439258 -0.045096293 0.064038068
0.9327386 -0.04241401 0.062407393
0.88830549 -0.033078119 0.063577682
0.89358968 -0.035796024 0.065706752
0.90224016 -0.039715409 0.065863848
0.91521168 -0.039853912 0.069396913
0.92794394 -0.038326077 0.065183371
0.93412143 -0.033638708 0.065042384
0.94017816 -0.036848694 0.062330484
0.88786805 -0.025474429 0.065112419
0.89299875 -0.025265412 0.06517455
0.94353294 -0.023626918 0.065171383
0.95258605 -0.020807296 0.060120404
0.96105909 -0.020596132 0.060301721
0.88886905 -0.0182664 0.062546663
0.89429373 -0.01369162 0.066713423
0.89643753 -0.0060655568 0.065275483
0.90237933 -0.0039883791 0.066657439
0.89856368 0.0035604206 0.065374345
0.90383732 0.0051605096 0.065337993
0.91005033 0.0093984473 0.066772774
0.90601647 0.013227069 0.064513482
0.91357225 0.018106246 0.065844767
0.90886033 0.021233901 0.063832402
0.91602266 0.02442432 0.06456615
0.92208415 0.027370291 0.062676542
0.92504251 0.034843504 0.066201769
0.93155515 0.037093937 0.062066227
0.94266587 0.039542317 0.060876727
0.92813557 0.044432208 0.067202583
0.93291843 0.043033347 0.064648993
0.92704999 0.051394433 0.066692591
0.93840188 0.052813638 0.065785736
0.94407642 0.056754611 0.064499676
0.95322305 0.058032997 0.066010699
0.96642256 0.058404215 0.068025939
0.94734836 0.062534869 0.064742498
0.95536625 0.062601775 0.064572155
0.96244383 0.0650343 0.062093154
0.90151083 -0.052358061 0.073074609
0.89758205 -0.044571195 0.071125515
0.90509725 -0.043729492 0.073281847
0.91316575 -0.044260681 0.07192491
0.92098546 -0.043472528 0.070640147
0.93218452 -0.044766866 0.070038557
0.88823974 -0.031020956 0.076076671
0.89534372 -0.033976778 0.07482066
0.90454149 -0.035964347 0.075073875
0.91532588 -0.035191551 0.074986331
0.92492169 -0.034300335 0.074225955
0.93299776 -0.031802833 0.07592845
0.88731521 -0.023908019 0.074725248
0.89331418 -0.025848417 0.076067008
0.90439755 -0.025339833 0.077780373
0.91511399 -0.026969163 0.076920643
0.92489284 -0.026084283 0.077147089
0.93564618 -0.023755757 0.075327635
0.94350064 -0.026480287 0.070794642
0.8872211 -0.016823569 0.077428088
0.8946228 -0.015769923 0.074970484
0.90376037 -0.014744625 0.076588765
0.91332644 -0.015346267 0.078491367
0.92957062 -0.018278919 0.079932928
0.93566275 -0.015550312 0.079507492
0.94080245 -0.012415372 0.079358399
0.89850289 -0.0007424131 0.071319878
0.90587574 -0.0059671937 0.074869625
0.91367728 -0.0058261957 0.077360101
0.94850206 -0.0014350191 0.07935825
0.95264405 -0.00056964159 0.079632133
0.90603989 0.0048146276 0.073945336
0.91496193 0.0050128908 0.077113934
0.92312431 0.0072052898 0.078347303
0.9071458 0.014345758 0.073719911
0.9149425 0.015264035 0.074703291
0.92391098 0.016441038 0.077024445
0.97144949 0.018740013 0.075271606
0.91729242 0.023840509 0.074202433
0.9240973 0.025349896 0.075508028
0.93443084 0.026922911 0.079542354
0.96674269 0.021211872 0.078845777
0.97717744 0.021806469 0.073475935
0.98418766 0.024711564 0.073406473
0.91927749 0.032165129 0.074749172
0.92566884 0.0335823 0.076142326
0.93298954 0.036169279 0.076542102
0.9799037 0.037694663 0.078805983
0.98279262 0.039078712 0.079975903
0.92845517 0.042721804 0.07371515
0.9342984 0.045557834 0.075290896
0.94469482 0.046278447 0.07711678
0.98480374 0.042709038 0.074802138
0.93598306 0.052453149 0.074456148
0.94483209 0.055224765 0.074524522
0.95436251 0.056605656 0.076662436
0.96501195 0.05455824 0.074921727
0.9724226 0.054546095 0.075334698
0.94873619 0.060679324 0.074571222
0.95565903 0.061343789 0.073402189
0.87889314 -0.031485222 0.086426139
0.88523585 -0.030529886 0.084968209
0.89418411 -0.031593822 0.081763096
0.90665656 -0.031278074 0.081369542
0.91169441 -0.031333938 0.080053657
0.87934434 -0.024274513 0.089330256
0.88613278 -0.024524216 0.085535377
0.89438927 -0.025310421 0.08382792
0.9045139 -0.02606912 0.082496107
0.91574478 -0.02382894 0.08232376
0.92478997 -0.023544826 0.082252406
0.93049312 -0.024428636 0.080296278
0.88532162 -0.017928392 0.083036855
0.89547879 -0.018047798 0.0813547
0.90590703 -0.017268762 0.081816435
0.91575187 -0.014315174 0.084663667
0.9252643 -0.016349075 0.084709793
0.93375969 -0.014505687 0.083978958
0.90887219 -0.00681144 0.082170993
0.9158076 -0.0047111791 0.083911166
0.92440754 -0.0044242586 0.086370029
0.93462706 -0.005482614 0.085079774
0.94313002 -0.0033104219 0.082774349
0.90813661 0.0012343079 0.081589356
0.91515464 0.0041171517 0.083994538
0.92467159 0.0049879402 0.084522329
0.93541926 0.0051488536 0.085796304
0.94245833 0.0043630749 0.086287566
0.91914225 0.013082501 0.081517287
0.92584735 0.015309034 0.083372578
0.93443924 0.014836955 0.085393988
0.9448728 0.01589071 0.087195337
0.95280296 0.01787569 0.087381892
0.96047783 0.019264698 0.087433636
0.92626488 0.024902519 0.082936525
0.93436921 0.025225392 0.084503613
0.94279534 0.025608059 0.087550439
0.95519108 0.021661574 0.086378686
0.96665013 0.025456775 0.084116049
0.97314388 0.025708966 0.082799606
0.92629814 0.034502469 0.081741422
0.93440342 0.035691012 0.084401719
0.94290936 0.035273485 0.086349875
0.95454031 0.039692402 0.08901982
0.96778506 0.032702271 0.08668682
0.97455007 0.033929996 0.084822245
0.98235261 0.036914185 0.081571519
0.92907751 0.04148021 0.080354631
0.93636721 0.044605751 0.083943941
0.94478667 0.045765746 0.085442163
0.95527279 0.046101931 0.086745545
0.96497512 0.046129964 0.085784025
0.97419083 0.044411596 0.084582277
0.9813152 0.043964945 0.081124127
0.93760663 0.051394433 0.083255567
0.94536859 0.053926561 0.083708681
0.95528007 0.053785041 0.084924318
0.96472144 0.05097935 0.083432361
0.86859113 -0.0253895 0.097712345
0.87613285 -0.025913404 0.096557736
0.88351989 -0.025605703 0.091771498
0.87619352 -0.017587706 0.095692277
0.88159359 -0.018967487 0.091053009
0.92463356 -0.005498549 0.091522053
0.9302789 -0.0094393194 0.09150663
0.92573351 0.00069029629 0.090325356
0.94261628 0.0042381966 0.092702851
0.93597412 0.014678851 0.090977944
0.94465977 0.015957367 0.091373794
0.95347613 0.017268047 0.091122672
0.93761075 0.024609493 0.091366753
0.94588453 0.02587357 0.093437798
0.95381236 0.024993824 0.093944713
0.96176827 0.027829841 0.091933653
0.939237 0.032770388 0.090896547
0.94529927 0.035097677 0.094381824
0.9545399 0.034451272 0.094972089
0.96339297 0.035938539 0.092028834
0.93794036 0.049636453 0.090451956
0.94560957 0.043658022 0.092660174
0.95474494 0.044271041 0.093214735
0.96220714 0.04412061 0.09204641
0.94543338 0.050960425 0.090338767
0.95629561 0.052285664 0.090219617
0.86620682 -0.025821848 0.10557456
0.8727082 -0.025466414 0.10278629
0.88058287 -0.028733686 0.10076143
0.86671144 -0.018155634 0.10440674
0.87378013 -0.018515885 0.10004032
0.94983178 0.029397041 0.10275954
0.87328857 -0.021382809 0.11110711
0 0 0 1 0 0 0 1 0 0 0 1 0 0 0 0 0 852 1 0 0
