ply
format ascii 1.0
comment PCL generated
element vertex 364
property float x
property float y
property float z
element camera 1
property float view_px
property float view_py
property float view_pz
property float x_axisx
property float x_axisy
property float x_axisz
property float y_axisx
property float y_axisy
property float y_axisz
property float z_axisx
property float z_axisy
property float z_axisz
property float focal
property float scalex
property float scaley
property float centerx
property float centery
property int viewportx
property int viewporty
property float k1
property float k2
end_header
0.87971413 -0.079993933 0.028792143
0.88614476 -0.078410655 0.025625994
0.87096429 -0.070794933 0.028796662
0.8787306 -0.070785105 0.024972497
0.88591617 -0.073308006 0.024593322
0.87173164 -0.063657045 0.02808544
0.87929815 -0.064904399 0.024198022
0.88587409 -0.064432092 0.023181833
0.88979739 -0.065123357 0.025494687
0.87349778 -0.061794136 0.02705322
0.87855208 -0.059575208 0.025172753
0.88673705 -0.058683258 0.024631996
0.87741888 -0.05480158 0.027642457
0.8878684 -0.053889751 0.025546864
0.87014264 -0.083125368 0.035837516
0.88880479 -0.085859396 0.031455744
0.89427799 -0.084440932 0.030510101
0.86376566 -0.078354031 0.036156204
0.869268 -0.078642517 0.032250013
0.87734544 -0.080950171 0.029721871
0.88498056 -0.082176961 0.028478106
0.89387411 -0.083193302 0.02825919
0.86344546 -0.071248934 0.034505948
0.86789978 -0.072350077 0.030778516
0.8770017 -0.075507455 0.026673475
0.88489598 -0.075136125 0.024978954
0.89188266 -0.074576393 0.027270308
0.86135024 -0.063881978 0.035743929
0.86807996 -0.06461703 0.030449836
0.87418509 -0.065414026 0.026282141
0.88484555 -0.065047055 0.023274599
0.89227301 -0.066073649 0.027349474
0.86220521 -0.058825374 0.037405122
0.86998969 -0.057297193 0.031431086
0.87610996 -0.057198912 0.027478179
0.88503873 -0.055430487 0.025338644
0.89325458 -0.056574814 0.028773582
0.89578092 -0.056434657 0.032034483
0.87867355 -0.050935157 0.030739648
0.88638663 -0.049474783 0.029705247
0.89382219 -0.049701046 0.030280286
0.885997 -0.047321234 0.032943673
0.86146432 -0.083780229 0.042140719
0.87082398 -0.085675374 0.03910419
0.87444329 -0.086348556 0.039966177
0.88532215 -0.087297477 0.037374198
0.89511514 -0.087817945 0.036927853
0.85034281 -0.07782843 0.045736812
0.85915619 -0.080522716 0.040735703
0.86651856 -0.083682016 0.038010433
0.87456334 -0.085049972 0.034783814
0.88526845 -0.086018398 0.033459593
0.89357829 -0.085542552 0.035039186
0.84267074 -0.071754478 0.047783215
0.8511529 -0.071405225 0.043152373
0.85731447 -0.074219361 0.038500853
0.86482191 -0.076045342 0.034011364
0.8725915 -0.078508131 0.030401219
0.88207161 -0.078593001 0.027602548
0.89409804 -0.07905893 0.03152645
0.84352857 -0.06496828 0.046756927
0.8499372 -0.065327674 0.043420203
0.85599005 -0.06503655 0.039142981
0.86294711 -0.065410532 0.033473965
0.87150848 -0.064574495 0.027924553
0.88138616 -0.059105795 0.025537703
0.8514477 -0.059345514 0.044588543
0.85982025 -0.058206379 0.03952169
0.86508596 -0.055415761 0.036136214
0.87258977 -0.052888799 0.032120161
0.88357097 -0.050503708 0.030033166
0.89354646 -0.052129027 0.03242426
0.86029756 -0.051792901 0.042912632
0.86805302 -0.049633704 0.038962387
0.87556952 -0.04708365 0.037708811
0.88521367 -0.045673341 0.035976265
0.89460254 -0.04712753 0.036445245
0.9000566 -0.050070107 0.038078181
0.87670636 -0.045877352 0.039588593
0.88697582 -0.04412457 0.039352067
0.89335787 -0.045415249 0.037189875
0.90033114 -0.047149148 0.038056403
0.8492617 -0.085927673 0.051979344
0.85697448 -0.087690257 0.05069638
0.86675966 -0.08880382 0.048094023
0.87514693 -0.089002073 0.047067832
0.88478452 -0.088009112 0.045390286
0.89422816 -0.088869676 0.045483008
0.90181601 -0.087235786 0.045659378
0.83124578 -0.081616782 0.055249888
0.840051 -0.078295693 0.051324051
0.84891641 -0.082466766 0.049448442
0.85484505 -0.083515801 0.046682384
0.86386997 -0.087365128 0.044268262
0.87399465 -0.088054828 0.04394215
0.88443142 -0.087677449 0.043570273
0.89469934 -0.087591469 0.046305358
0.90008384 -0.084791213 0.044595089
0.83029205 -0.07268548 0.051884186
0.83895993 -0.073485874 0.049702656
0.84673989 -0.074471474 0.046110582
0.85389626 -0.076444469 0.042104606
0.8612206 -0.07906884 0.03794482
0.86948133 -0.084012829 0.037423298
0.82707959 -0.065415099 0.050304081
0.83903593 -0.064090244 0.048983056
0.84673882 -0.064715184 0.045374487
0.85282511 -0.064918414 0.040979192
0.8589952 -0.064182438 0.03711658
0.90376842 -0.061751448 0.049985204
0.82971537 -0.058276027 0.053186938
0.83766103 -0.060239546 0.051454645
0.84708792 -0.056824666 0.048235316
0.8544066 -0.054513138 0.04474628
0.86173397 -0.052323874 0.040238615
0.87174577 -0.048204597 0.039628398
0.89838803 -0.050390296 0.03956097
0.9082306 -0.051621642 0.047241963
0.9090361 -0.057559457 0.044562541
0.83934355 -0.053245481 0.05426171
0.84902698 -0.050044559 0.051706225
0.85699284 -0.04800598 0.048557054
0.86643976 -0.045566425 0.045748129
0.87528157 -0.04357608 0.044783782
0.8852756 -0.043603797 0.044893041
0.89418304 -0.044734474 0.045675978
0.90375954 -0.047542796 0.04392875
0.90812492 -0.051466186 0.046075303
0.85877389 -0.044084683 0.052013945
0.8689571 -0.044014443 0.047359709
0.87573183 -0.04338102 0.046229441
0.88509625 -0.042836215 0.046291389
0.89352322 -0.043865941 0.045341611
0.90082806 -0.046063136 0.045774098
0.85526216 -0.091367625 0.059254568
0.83958489 -0.087596364 0.058919474
0.84603238 -0.089798965 0.058800053
0.85546219 -0.09034434 0.057031807
0.86558789 -0.09139362 0.057131361
0.87497371 -0.090635493 0.055282179
0.88386106 -0.090064272 0.05498999
0.89385659 -0.088064916 0.054104611
0.90112841 -0.085685596 0.053687368
0.83603328 -0.084738247 0.056159109
0.84416521 -0.086603127 0.055512473
0.85410756 -0.088518478 0.05278977
0.86430442 -0.089914151 0.0525994
0.8757363 -0.090047583 0.056072205
0.88424164 -0.089438103 0.053259488
0.89409047 -0.086872704 0.056245718
0.90371972 -0.083797336 0.055507302
0.90660053 -0.080215171 0.054523684
0.82850355 -0.075384066 0.05205024
0.8334595 -0.075947605 0.051626723
0.84182298 -0.077575341 0.049084306
0.8486914 -0.079069324 0.046156205
0.90592617 -0.073914945 0.062974021
0.90680897 -0.075369127 0.060158618
0.90862435 -0.072999872 0.055606786
0.82645124 -0.06299682 0.051241342
0.8335821 -0.064191468 0.049926747
0.84101743 -0.063382089 0.047994856
0.84932363 -0.06201512 0.043759134
0.90683734 -0.062436737 0.063474074
0.90926576 -0.061459821 0.05872051
0.91434139 -0.064260669 0.05554102
0.82612783 -0.055692498 0.054044187
0.83453745 -0.054467779 0.054603074
0.84327018 -0.052299544 0.052550003
0.85156512 -0.051532138 0.048425708
0.85890472 -0.046751685 0.048295721
0.89988732 -0.049894534 0.058512889
0.9072085 -0.052926153 0.055420857
0.91159606 -0.057115398 0.053795535
0.83757198 -0.048630472 0.057589937
0.84586155 -0.046192423 0.05693157
0.8549428 -0.044196937 0.054536559
0.86398339 -0.042504508 0.053237285
0.87493563 -0.041766893 0.054579679
0.88449329 -0.042223636 0.055496629
0.8955617 -0.044934344 0.055128377
0.90166599 -0.048520312 0.053850263
0.90854812 -0.05269812 0.0515997
0.84270829 -0.043257166 0.062129505
0.84686255 -0.044087071 0.059314627
0.8577047 -0.040893722 0.058638081
0.86595786 -0.041300483 0.056299027
0.87547058 -0.040769991 0.05647127
0.88432592 -0.04180897 0.055035613
0.89253384 -0.044406082 0.053835392
0.89796782 -0.045228031 0.050798934
0.8476007 -0.095913462 0.068758622
0.86128002 -0.093462057 0.065426923
0.88396078 -0.090088725 0.062820315
0.83743948 -0.093577631 0.063854411
0.84538728 -0.094122738 0.065026745
0.85510641 -0.094728261 0.065319262
0.86449891 -0.093178123 0.065979555
0.87379903 -0.09156014 0.065226547
0.8829307 -0.09034656 0.06331306
0.89128357 -0.087169118 0.062502913
0.89920801 -0.085148826 0.059596047
0.83720601 -0.089599058 0.06129811
0.84355199 -0.09044975 0.058888756
0.85254163 -0.091439202 0.059007652
0.87503874 -0.09087418 0.064940438
0.8866595 -0.088099696 0.065660484
0.89463079 -0.084218182 0.064721636
0.90020579 -0.081585348 0.063066766
0.90705138 -0.080007471 0.058795091
0.89464498 -0.078367457 0.073343612
0.89889854 -0.078056231 0.068160683
0.90488011 -0.074264169 0.065206043
0.90834934 -0.073098645 0.060987324
0.89634383 -0.060623363 0.072892696
0.89756507 -0.059435178 0.070430987
0.90479004 -0.065344699 0.065367118
0.91108799 -0.065401725 0.059816204
0.9136039 -0.067739055 0.05645014
0.83485925 -0.048940606 0.056810625
0.83898199 -0.046930917 0.058035869
0.8898049 -0.047005083 0.068681471
0.89754111 -0.053658571 0.066333093
0.90228212 -0.056684401 0.063275337
0.90833604 -0.059491418 0.059086721
0.91245985 -0.060068008 0.056479305
0.83678973 -0.045660935 0.061666504
0.84360361 -0.04203796 0.063719794
0.85433114 -0.03985947 0.062565506
0.86526418 -0.04036051 0.064245448
0.87505567 -0.041270953 0.06585145
0.88538843 -0.043138839 0.065507114
0.89336491 -0.047424842 0.063519537
0.89942181 -0.051271636 0.06191818
0.9076125 -0.054597549 0.05631303
0.8405515 -0.041349035 0.066341333
0.84562618 -0.038937949 0.066938415
0.85449499 -0.039045654 0.065587632
0.86488694 -0.039614148 0.066146933
0.87425423 -0.040987648 0.064531557
0.88285834 -0.042339988 0.063614689
0.88971305 -0.043982368 0.062572069
0.89682853 -0.047367472 0.060013328
0.85720503 -0.03853 0.069304205
0.84852755 -0.096296594 0.073840223
0.8557387 -0.09702912 0.075937577
0.86624593 -0.093917243 0.075257637
0.84868538 -0.097178347 0.072130203
0.85506004 -0.096992224 0.074477345
0.86491776 -0.094564654 0.074201971
0.87378603 -0.091363154 0.074406549
0.88213164 -0.08788304 0.072526559
0.88991165 -0.085135393 0.068770699
0.86053205 -0.095930703 0.072753832
0.86781913 -0.093643606 0.075732678
0.87556142 -0.090021849 0.076632753
0.88392031 -0.085069709 0.074484207
0.89077389 -0.080863535 0.072604924
0.89744437 -0.07889843 0.068856075
0.9040668 -0.077847324 0.06476967
0.88363141 -0.079945184 0.083994605
0.88855761 -0.077608757 0.079378031
0.89334911 -0.075128704 0.074930906
0.89768142 -0.073259778 0.071692571
0.90634453 -0.07257279 0.064476237
0.88576001 -0.060585033 0.0857777
0.89027083 -0.063084677 0.080771804
0.89449257 -0.065781519 0.075892091
0.89929473 -0.065321349 0.07007128
0.90429443 -0.06516546 0.06569545
0.88133371 -0.046942551 0.079029918
0.88899261 -0.055583335 0.078431994
0.89325637 -0.055825513 0.072750069
0.89757919 -0.058630299 0.068726331
0.84721792 -0.038537584 0.071894534
0.85545576 -0.038243257 0.073364384
0.86615604 -0.040383976 0.076038823
0.87578112 -0.04280803 0.075197145
0.88409269 -0.046889819 0.0749401
0.89087915 -0.049624365 0.07071995
0.89602453 -0.052278191 0.066743687
0.84744084 -0.037822954 0.073409125
0.85523647 -0.038291685 0.075350575
0.86350524 -0.039672647 0.073871888
0.87321198 -0.042024817 0.073608324
0.88055789 -0.044155505 0.072154723
0.88768071 -0.04496545 0.06792967
0.85661131 -0.096759498 0.083263896
0.85978186 -0.096639685 0.082553692
0.85628957 -0.097844772 0.083114758
0.86437786 -0.094220489 0.085006952
0.87280375 -0.089915067 0.082696326
0.8791613 -0.08605431 0.080207065
0.86902058 -0.091282457 0.089297175
0.8756631 -0.086341493 0.0846674
0.88066643 -0.08218465 0.082316883
0.88759506 -0.079241976 0.078350127
0.87951112 -0.078337349 0.089964509
0.88508511 -0.07462471 0.084172249
0.88987178 -0.073554203 0.079836592
0.89543921 -0.071447641 0.074588403
0.87466002 -0.060073584 0.097287305
0.88111544 -0.059273962 0.090565495
0.88602388 -0.064997077 0.085740313
0.89017582 -0.065435149 0.079719208
0.89521271 -0.065384567 0.074112505
0.87195402 -0.046197888 0.089473709
0.87907171 -0.053496785 0.08875142
0.88371116 -0.056031346 0.083774932
0.88767034 -0.057287358 0.079879262
0.85492998 -0.041042518 0.085580207
0.86539263 -0.04277996 0.085959896
0.87417299 -0.046278458 0.084983654
0.8811239 -0.050279021 0.082386211
0.88562822 -0.052404396 0.078942418
0.84861839 -0.040481407 0.080187671
0.85587054 -0.039041828 0.08156728
0.8627795 -0.040820751 0.083723731
0.87071317 -0.043257825 0.081437998
0.87805939 -0.045411386 0.078056738
0.86432832 -0.092649877 0.089701593
0.8646065 -0.092135869 0.092148222
0.86983669 -0.088545062 0.09125825
0.86141545 -0.081896722 0.08826004
0.86680603 -0.085860394 0.097179383
0.87264353 -0.08367186 0.093776949
0.87866795 -0.079535097 0.088845022
0.8712182 -0.074869454 0.10131609
0.8757329 -0.074602202 0.096342131
0.88125467 -0.073621407 0.089750685
0.8830089 -0.071427397 0.087808259
0.86160922 -0.062910095 0.093234085
0.86994189 -0.061071981 0.10025087
0.8773343 -0.065039121 0.095532522
0.8820743 -0.06522467 0.089928977
0.88515705 -0.066269912 0.085812964
0.85894012 -0.052816615 0.095548175
0.86793327 -0.053393856 0.097874172
0.87358189 -0.055550195 0.095637813
0.88083643 -0.058131199 0.088565506
0.88400656 -0.060172446 0.085166492
0.85684484 -0.04630591 0.092066176
0.86593795 -0.046477709 0.092600793
0.87074268 -0.048793856 0.092116281
0.87906748 -0.051167287 0.086778469
0.85684538 -0.04244855 0.087282971
0.86407 -0.044081561 0.089194141
0.86948228 -0.045357559 0.089302778
0.87011343 -0.084711157 0.097496986
0.8664943 -0.083819903 0.097579382
0.8712337 -0.081259035 0.097966403
0.87511057 -0.07827282 0.095846131
0.86716735 -0.074561127 0.10093912
0.8730036 -0.073684357 0.098959036
0.87545824 -0.073181123 0.097322799
0.86648756 -0.06552884 0.099014714
0.87275577 -0.06495209 0.098660097
0.875489 -0.066003285 0.097657695
0.86501217 -0.056790143 0.099002004
0.87218422 -0.058093481 0.097289585
0.87511533 -0.060353946 0.096704341
0.87147158 -0.051742915 0.094218589
0.87411994 -0.053460721 0.094226904
0.87371141 -0.068060696 0.099497385
0 0 0 1 0 0 0 1 0 0 0 1 0 0 0 0 0 364 1 0 0
