ply
format ascii 1.0
comment PCL generated
element vertex 1026
property float x
property float y
property float z
element camera 1
property float view_px
property float view_py
property float view_pz
property float x_axisx
property float x_axisy
property float x_axisz
property float y_axisx
property float y_axisy
property float y_axisz
property float z_axisx
property float z_axisy
property float z_axisz
property float focal
property float scalex
property float scaley
property float centerx
property float centery
property int viewportx
property int viewporty
property float k1
property float k2
end_header
0.92051333 -0.056785621 0.020589141
0.92098534 -0.044323478 0.021571258
0.91797912 -0.073464222 0.028426971
0.92493546 -0.07547009 0.025430677
0.90862232 -0.062801726 0.031001396
0.91512424 -0.065171383 0.026653394
0.92382145 -0.065527946 0.021131022
0.90114933 -0.050725222 0.034299552
0.90806705 -0.053855166 0.029460503
0.91543365 -0.055534802 0.023905495
0.92080277 -0.0530877 0.020314667
0.90653372 -0.047206726 0.030754473
0.9145968 -0.044193108 0.025262276
0.92438155 -0.043586157 0.019762363
0.90758044 -0.039886426 0.032069523
0.91709697 -0.03633 0.027397787
0.92448539 -0.034346186 0.0243864
0.91607344 -0.031350438 0.031183209
0.92704493 -0.027762184 0.028800771
0.92879111 -0.090253018 0.038506549
0.91708219 -0.082569681 0.036637727
0.92471796 -0.08644519 0.035314295
0.90195107 -0.06919042 0.03928218
0.90770471 -0.072519578 0.036874842
0.91396511 -0.075920209 0.033689454
0.89787835 -0.063343808 0.039444514
0.90576792 -0.066031396 0.034394234
0.91135848 -0.066557199 0.029996663
0.88902789 -0.052684676 0.042352874
0.89757276 -0.053650159 0.036553733
0.90376353 -0.055505402 0.032671921
0.90890795 -0.055566449 0.028879244
0.89091939 -0.047261048 0.04137424
0.89739913 -0.045745812 0.03701324
0.90354037 -0.044246756 0.032983463
0.91020083 -0.043946393 0.028920848
0.88888079 -0.041176025 0.044317905
0.89732659 -0.037389234 0.039884549
0.90545201 -0.034772616 0.035847157
0.91450059 -0.0325992 0.031155432
0.91953486 -0.03046643 0.029602816
0.90687996 -0.028321542 0.040267911
0.9159199 -0.026490107 0.03554805
0.92402166 -0.02420087 0.033904117
0.9340201 -0.021677574 0.033363719
0.92526996 -0.01993873 0.03838703
0.93550193 -0.018561991 0.037115157
0.91826135 -0.090008572 0.048679724
0.92599124 -0.091527343 0.045399867
0.93382031 -0.093759395 0.044407859
0.90551943 -0.082528755 0.047166727
0.91481513 -0.085794918 0.043670908
0.92393166 -0.089900278 0.042689171
0.89702207 -0.074206412 0.047125813
0.90433854 -0.075995877 0.042157944
0.88708872 -0.064101838 0.048380617
0.89451492 -0.066122942 0.043316081
0.89951444 -0.063040465 0.037754718
0.88030499 -0.053501576 0.049210507
0.88544858 -0.055139996 0.045418408
0.89177096 -0.054161005 0.040578436
0.89836711 -0.052782476 0.035926282
0.87918752 -0.045448177 0.050404221
0.88556707 -0.044899207 0.045524523
0.89176565 -0.043127496 0.041477371
0.89784265 -0.043342069 0.037201755
0.88683248 -0.03729118 0.047882251
0.89331901 -0.034234289 0.044618528
0.9007104 -0.033683386 0.039491519
0.89213663 -0.025369877 0.053307217
0.8966319 -0.027222307 0.047653396
0.90483063 -0.0243326 0.044939715
0.91256672 -0.021974703 0.042508408
0.92196846 -0.018685969 0.042236567
0.90595204 -0.020580655 0.048522383
0.91479152 -0.018584469 0.04639066
0.92565966 -0.016337341 0.045332406
0.93475825 -0.014942518 0.045048553
0.94512624 -0.015453153 0.045398671
0.93486327 -0.013995119 0.050091192
0.90485299 -0.088676699 0.05836362
0.91564709 -0.091416635 0.056159955
0.92501503 -0.093590043 0.054694328
0.9358722 -0.094756618 0.054924905
0.94326705 -0.09461008 0.055875581
0.89040518 -0.08252243 0.059856907
0.89614749 -0.083711952 0.056532741
0.90481496 -0.086650208 0.054087337
0.91255993 -0.08922299 0.05255574
0.92003679 -0.091738313 0.052240688
0.87942117 -0.072209507 0.060537402
0.88665348 -0.074517362 0.055460017
0.89311105 -0.077881388 0.052654963
0.87734604 -0.064339615 0.056592062
0.88378364 -0.065735571 0.051955044
0.86140281 -0.052696094 0.063083112
0.8689115 -0.051569823 0.057963293
0.87480861 -0.055398222 0.053852461
0.8816644 -0.054680321 0.048200395
0.86350477 -0.049678572 0.061401632
0.8687672 -0.046644893 0.058259588
0.87376058 -0.04520414 0.054522347
0.88080817 -0.043536387 0.049337275
0.86805224 -0.038936485 0.060893811
0.87701464 -0.035872642 0.056174912
0.8835026 -0.033755682 0.05270144
0.89204568 -0.028521474 0.049720101
0.87971741 -0.030620014 0.058157172
0.88595682 -0.027349355 0.055848323
0.89418632 -0.023548646 0.053914696
0.90154928 -0.020153241 0.052778311
0.89600945 -0.02031152 0.0567699
0.90457201 -0.01706236 0.055431809
0.91436249 -0.014140421 0.055363037
0.92476082 -0.013525992 0.054124158
0.93490016 -0.013375372 0.055885505
0.94500417 -0.014537197 0.054632649
0.91847301 -0.013542961 0.055803291
0.89058012 -0.087687105 0.069417313
0.8980065 -0.089435719 0.067697398
0.90481436 -0.091095336 0.06663014
0.91420627 -0.092376277 0.064779535
0.92556387 -0.093311168 0.064873993
0.93516648 -0.093818381 0.066122241
0.94549781 -0.094112188 0.064445399
0.87778074 -0.080340341 0.069419242
0.88585413 -0.083081633 0.064751193
0.89388549 -0.08692345 0.064070337
0.90230733 -0.08972124 0.063944981
0.95708162 -0.088916421 0.06815055
0.85942727 -0.067554072 0.072177574
0.86832023 -0.07179755 0.06908711
0.87607574 -0.074699923 0.065164007
0.8831504 -0.078417353 0.061787337
0.8586098 -0.061945587 0.068891309
0.86459202 -0.064582296 0.065512337
0.87168694 -0.066052012 0.061370678
0.8562963 -0.053782374 0.067223713
0.86194825 -0.054500099 0.062697932
0.86931795 -0.053851768 0.057870477
0.85143167 -0.045112126 0.071043625
0.85578972 -0.045478556 0.067476988
0.86179942 -0.045981683 0.06252443
0.86893004 -0.042608451 0.058496855
0.85760903 -0.036327463 0.069615647
0.86528963 -0.034987427 0.064684354
0.87394238 -0.032888159 0.060688879
0.88182187 -0.027938019 0.058478177
0.86731261 -0.02711896 0.069570646
0.87532163 -0.026296947 0.065168902
0.88552481 -0.022045109 0.063248508
0.89328927 -0.020118732 0.0599529
0.95815402 -0.020276604 0.066000998
0.87782425 -0.021188688 0.069342032
0.88621676 -0.018823871 0.067449361
0.89451659 -0.017047815 0.064919516
0.90440518 -0.013572322 0.064989597
0.91431177 -0.012703023 0.064325728
0.92482692 -0.012994529 0.065071054
0.93462628 -0.014087298 0.064925969
0.94498509 -0.015887778 0.06579151
0.95312881 -0.017992189 0.064654
0.91504574 -0.012241525 0.069632821
0.8857885 -0.088340402 0.075887986
0.89528787 -0.090719827 0.076212205
0.9045105 -0.091923989 0.074327536
0.91507733 -0.092366613 0.075116262
0.92529196 -0.092462316 0.074835941
0.93383729 -0.092301346 0.074482255
0.94136953 -0.091585532 0.073803693
0.95323634 -0.088752568 0.072828233
0.86935848 -0.081015565 0.07759425
0.8756265 -0.084743269 0.077216998
0.88485926 -0.087367438 0.074004263
0.89361197 -0.089673437 0.073364548
0.9054215 -0.092358828 0.076483458
0.92891663 -0.091397621 0.078741178
0.93522072 -0.090650819 0.078883819
0.94630897 -0.089338295 0.076625176
0.9554069 -0.086164095 0.075608239
0.85767359 -0.072547674 0.078378759
0.86504054 -0.075826511 0.075355098
0.87123817 -0.07867036 0.072605535
0.87886739 -0.083045185 0.071620941
0.95922059 -0.07905408 0.080766723
0.96557808 -0.074798845 0.077460997
0.84783411 -0.062012352 0.078316912
0.85399657 -0.065894052 0.075694911
0.85984188 -0.066469923 0.07055112
0.83940899 -0.052916486 0.081924178
0.84611499 -0.05524141 0.076681964
0.85206002 -0.055634484 0.070798881
0.83768034 -0.04587011 0.081314556
0.84573054 -0.044396132 0.07580442
0.85214287 -0.045440029 0.069973543
0.83992976 -0.03810453 0.081718527
0.84813601 -0.035888541 0.076858118
0.85270488 -0.033114206 0.074523963
0.86281818 -0.030275155 0.069595493
0.95862043 -0.03137964 0.081206352
0.96499401 -0.033741362 0.077550985
0.84922838 -0.029439714 0.079744361
0.85682094 -0.026404873 0.076733232
0.86521786 -0.023978213 0.073468402
0.87485611 -0.021359889 0.070730954
0.88535744 -0.016517038 0.071523741
0.93701136 -0.018278196 0.079399496
0.94643372 -0.02089435 0.077564545
0.95454979 -0.02346633 0.075969398
0.9626196 -0.026421484 0.072852701
0.85976583 -0.020377882 0.080581695
0.86445218 -0.019276068 0.078286894
0.87631601 -0.017539917 0.074964054
0.88564372 -0.01444942 0.075493194
0.895419 -0.013330967 0.074317969
0.90582687 -0.012207008 0.075582117
0.91543788 -0.012673571 0.074223034
0.92511356 -0.015170202 0.076166354
0.93476462 -0.016620219 0.075235896
0.94392878 -0.018626634 0.073892742
0.95216888 -0.020401686 0.072041892
0.89674163 -0.011842036 0.079959676
0.90468347 -0.012646092 0.073107064
0.86884165 -0.087217502 0.088892512
0.87525493 -0.088313922 0.086715676
0.88512808 -0.089908615 0.084254637
0.89571601 -0.091341272 0.083878346
0.90497851 -0.0917878 0.085339569
0.91500384 -0.091439836 0.084329136
0.92360598 -0.090506494 0.08466249
0.93436754 -0.089581408 0.081826709
0.85672826 -0.081196897 0.089059941
0.86560512 -0.084107049 0.085158937
0.87378347 -0.087667964 0.08520896
0.88457501 -0.09001486 0.085201561
0.89368796 -0.091143876 0.086421147
0.90614492 -0.091339476 0.087516069
0.91656256 -0.090049222 0.088809401
0.92692053 -0.089466728 0.085578471
0.93566167 -0.087584592 0.085891984
0.94531304 -0.08341933 0.086299159
0.95196265 -0.082535975 0.082983598
0.84707093 -0.071832679 0.08776208
0.8556307 -0.076403901 0.083990403
0.86213231 -0.080357663 0.082672
0.94678581 -0.079523459 0.089083388
0.95623696 -0.074477091 0.086631283
0.96232933 -0.073178113 0.08221487
0.83833575 -0.063422814 0.087867595
0.84574533 -0.066269882 0.083463401
0.85107541 -0.067872033 0.079904839
0.95811003 -0.066089951 0.088823564
0.96534353 -0.063565128 0.083364993
0.82302904 -0.050958484 0.09350156
0.82989645 -0.05327313 0.08930885
0.8359533 -0.055162244 0.085220307
0.84242892 -0.055675782 0.079869412
0.95929635 -0.054012779 0.089598551
0.96567625 -0.053874947 0.084407538
0.8269664 -0.044625204 0.089606777
0.83299476 -0.044493701 0.084445715
0.83944619 -0.04445488 0.07968092
0.95819342 -0.044857942 0.089195445
0.96430492 -0.045271739 0.084507853
0.82830691 -0.036526427 0.090488762
0.83691001 -0.035296101 0.08488781
0.84210461 -0.033966511 0.081456348
0.85041296 -0.028104689 0.079327382
0.94985789 -0.031309012 0.087747097
0.95568621 -0.034600358 0.085599609
0.96236336 -0.037229925 0.082505375
0.82937694 -0.032985732 0.091755003
0.83778667 -0.026843956 0.089274392
0.84607255 -0.024902681 0.085834175
0.85379446 -0.022137651 0.082201973
0.86298931 -0.018132392 0.080779605
0.92993438 -0.018397974 0.087415703
0.93699467 -0.021643337 0.087998301
0.94478166 -0.025204415 0.085918345
0.95378107 -0.027681638 0.081047423
0.96036845 -0.030441303 0.07907071
0.84913069 -0.020616082 0.087742448
0.85578954 -0.017197382 0.086888894
0.86494112 -0.01467641 0.08465039
0.87534803 -0.0119009 0.084893726
0.88499933 -0.011116616 0.0847065
0.89489096 -0.011586594 0.083790965
0.90464878 -0.012217756 0.085236959
0.91463798 -0.014404786 0.085622497
0.92514205 -0.016036579 0.084014185
0.93342173 -0.018572824 0.08379361
0.94093752 -0.019961778 0.079640292
0.86789477 -0.011388666 0.089807242
0.87655747 -0.011279094 0.086373433
0.88336235 -0.011187325 0.08535476
0.89520097 -0.011386363 0.085995838
0.86666912 -0.089086287 0.096200958
0.87693715 -0.090206541 0.093444288
0.88675022 -0.091120489 0.0951657
0.89625752 -0.090605497 0.093867533
0.90282756 -0.090205185 0.094174854
0.91059327 -0.090201385 0.091396257
0.92134756 -0.088161185 0.092326708
0.84754169 -0.080975883 0.098064356
0.85573655 -0.084481388 0.095713533
0.86403877 -0.087715983 0.094513319
0.87459034 -0.089864679 0.093767241
0.88442224 -0.090908773 0.095310375
0.89508283 -0.090272434 0.09558031
0.904311 -0.089389168 0.097026438
0.91572672 -0.087937243 0.095710024
0.92385328 -0.08595103 0.094986573
0.93282986 -0.083308667 0.09309826
0.94179779 -0.080862835 0.090889372
0.94989228 -0.078954093 0.088018812
0.82815588 -0.069455072 0.099949427
0.83695209 -0.07261654 0.09730348
0.84480846 -0.075828493 0.094567917
0.85118514 -0.079296313 0.092185847
0.92815286 -0.080549173 0.099476852
0.93609911 -0.077013329 0.097919494
0.94402421 -0.074892677 0.094044857
0.95121026 -0.073704697 0.090233184
0.81965482 -0.064623237 0.10324154
0.82771629 -0.064031653 0.096244849
0.83526504 -0.067008503 0.092664592
0.84132195 -0.070246175 0.090814017
0.93977177 -0.068437316 0.10028409
0.94525588 -0.064737283 0.097650446
0.95400155 -0.064259022 0.092222922
0.80740082 -0.050387952 0.10518416
0.81727052 -0.053497735 0.09910927
0.82394999 -0.055839717 0.094233811
0.8306551 -0.054506522 0.088289008
0.94517237 -0.054393508 0.098825723
0.95463663 -0.055332553 0.092522115
0.95833832 -0.055981532 0.090356506
0.81011492 -0.045853063 0.10241871
0.81701458 -0.045234531 0.09761063
0.82263768 -0.04620092 0.092526093
0.83078569 -0.041645367 0.086616188
0.93903148 -0.043629244 0.1013828
0.94588816 -0.043692604 0.096652932
0.95286906 -0.045996167 0.092696019
0.9586091 -0.049788654 0.089791797
0.80963206 -0.036963191 0.10473502
0.81793743 -0.037585139 0.098006167
0.82520086 -0.034345057 0.093593441
0.83173358 -0.032296248 0.089645416
0.93756819 -0.032958966 0.098686472
0.94416249 -0.035042088 0.094606429
0.95260519 -0.038139276 0.089848146
0.81953013 -0.030051833 0.10076559
0.82680827 -0.026084334 0.097790807
0.83418024 -0.023726704 0.094777755
0.84346104 -0.02048187 0.092051283
0.85128969 -0.017388649 0.089831918
0.91717267 -0.019395359 0.098628335
0.92616552 -0.021511719 0.096814491
0.93494964 -0.025943814 0.095535599
0.94232386 -0.028368339 0.091789231
0.82717836 -0.02214938 0.10142794
0.83658797 -0.019129654 0.098511763
0.8457011 -0.01734261 0.094867475
0.85477197 -0.013117185 0.095060244
0.8649013 -0.011250241 0.093270883
0.87484574 -0.0097491182 0.095023297
0.88522553 -0.010421217 0.095645286
0.89539188 -0.012121826 0.095389053
0.90552855 -0.014012933 0.094907187
0.91512448 -0.01711553 0.095183469
0.92239022 -0.018195614 0.092713982
0.9310866 -0.020930463 0.091870323
0.85405725 -0.013190317 0.0967988
0.86351466 -0.011303243 0.093692653
0.87466419 -0.0097884927 0.094689667
0.88493168 -0.010408441 0.094071254
0.89378929 -0.011524748 0.093490548
0.85855514 -0.088563055 0.10527312
0.86290163 -0.089590408 0.10438156
0.87607795 -0.089655839 0.10805846
0.89623678 -0.088655934 0.10287151
0.90108979 -0.088816546 0.10078754
0.82957685 -0.079277329 0.11035565
0.83697987 -0.081090152 0.10708115
0.8449496 -0.083923787 0.10565197
0.85407084 -0.087467134 0.10532811
0.86353236 -0.089715093 0.10490744
0.87524867 -0.090341926 0.1051006
0.88452548 -0.089582331 0.1050248
0.89440328 -0.088397488 0.1042613
0.90529168 -0.085470811 0.10598914
0.91488022 -0.083107948 0.10428841
0.9225027 -0.080681123 0.10248898
0.92959416 -0.078162543 0.10079195
0.82093298 -0.072137773 0.10859276
0.82624513 -0.0746627 0.10663139
0.83497441 -0.077372447 0.10312119
0.8419416 -0.07931079 0.1003915
0.90696186 -0.081298716 0.11068964
0.91633803 -0.078023627 0.10887942
0.92451096 -0.075306915 0.1064812
0.93582898 -0.073434196 0.10055577
0.80637938 -0.061839633 0.11209536
0.81672281 -0.06454929 0.10626991
0.8236739 -0.068342492 0.1026993
0.92588025 -0.065327413 0.11112678
0.93407345 -0.065526031 0.1052164
0.94072676 -0.063575089 0.10089181
0.79452777 -0.051446959 0.11388278
0.80582309 -0.054518696 0.10732813
0.81222886 -0.056150928 0.10330488
0.82062978 -0.060671058 0.098581009
0.9275316 -0.051212996 0.11132728
0.93543524 -0.054928079 0.10559902
0.94216478 -0.053267367 0.10093588
0.79390782 -0.047900483 0.11338227
0.79811001 -0.045623731 0.11080363
0.80538386 -0.04469759 0.10606822
0.81123513 -0.045724042 0.10082641
0.81825793 -0.044944778 0.096207
0.9277916 -0.042531602 0.10895014
0.93504077 -0.044772644 0.10432704
0.94148731 -0.046506796 0.1004687
0.79966885 -0.036946163 0.11197232
0.80698258 -0.036706038 0.10681279
0.81343222 -0.033054966 0.10335558
0.82226157 -0.029984171 0.097775578
0.91858041 -0.030849492 0.11008275
0.92594349 -0.033941314 0.10704938
0.93293941 -0.036432981 0.10349986
0.94013262 -0.03892646 0.099290431
0.80943054 -0.028463526 0.10958154
0.81687492 -0.025649084 0.10579938
0.82432389 -0.022422085 0.102575
0.8308596 -0.022382401 0.097745225
0.90685493 -0.020740291 0.10803537
0.91505939 -0.02481954 0.10765475
0.92463702 -0.026412746 0.10319206
0.93202442 -0.028946156 0.10043702
0.81872684 -0.020667419 0.10830699
0.82576191 -0.018156661 0.1064833
0.83652669 -0.015551039 0.10459093
0.84402865 -0.012360877 0.10362298
0.85472983 -0.0096098706 0.1045759
0.86567909 -0.0095176194 0.10402779
0.87420887 -0.010552605 0.10538269
0.8846426 -0.012191003 0.10439277
0.89502132 -0.014483776 0.10532759
0.90483308 -0.017317461 0.10405231
0.91227591 -0.019439735 0.10203049
0.92450517 -0.02174424 0.098473378
0.93326634 -0.023967214 0.095063955
0.84641761 -0.010312394 0.10678604
0.85611594 -0.0093468707 0.10549504
0.86440778 -0.0096573588 0.10261058
0.87313896 -0.010571808 0.10507496
0.84753752 -0.087186463 0.11374671
0.85583574 -0.088293619 0.11389227
0.86843395 -0.088973515 0.11409357
0.8737253 -0.08860831 0.11344046
0.88401771 -0.087724574 0.1114182
0.81863916 -0.079208151 0.12041649
0.82639551 -0.081160426 0.1171087
0.83560324 -0.084509797 0.11604321
0.84399587 -0.086250402 0.1141141
0.85403019 -0.088328518 0.11407152
0.86528647 -0.088715732 0.115684
0.87577873 -0.087768599 0.11513408
0.88557941 -0.086454734 0.11482002
0.8942731 -0.08370702 0.11504965
0.90152228 -0.081728883 0.11320463
0.90948105 -0.079760149 0.11092391
0.80959946 -0.072420329 0.11891986
0.81553853 -0.074634574 0.11670309
0.82385051 -0.078164153 0.11283641
0.82985097 -0.079750694 0.11045776
0.89773476 -0.078620791 0.11889096
0.90631604 -0.077279091 0.11500222
0.9135077 -0.071968339 0.11472709
0.92072248 -0.070990182 0.11169475
0.79309899 -0.059066635 0.11921721
0.798922 -0.062412001 0.11758313
0.80550659 -0.065461271 0.11612013
0.81313956 -0.067365967 0.11132599
0.90936816 -0.069451623 0.11885001
0.91544646 -0.065461718 0.11708464
0.92220402 -0.064268969 0.1137614
0.93215269 -0.061864957 0.10749465
0.78199559 -0.051481396 0.12497248
0.78997087 -0.053565849 0.11783177
0.79548824 -0.056755733 0.11546382
0.802679 -0.058614638 0.11167994
0.80812424 -0.057358067 0.10677357
0.91705054 -0.055143889 0.11818539
0.92426604 -0.05517656 0.1136407
0.93031466 -0.051886857 0.10922196
0.7825461 -0.045414288 0.12264152
0.78737253 -0.04580969 0.11817739
0.79376233 -0.045400556 0.11335719
0.8002826 -0.045221157 0.10917971
0.80709887 -0.044717744 0.10455438
0.91639018 -0.044009745 0.11732976
0.92365026 -0.044742998 0.11261287
0.78914893 -0.036750901 0.12059277
0.79596502 -0.035341032 0.11549288
0.80249161 -0.034665864 0.1105525
0.80961502 -0.031630728 0.10680697
0.90802264 -0.032348648 0.1187399
0.91511285 -0.035148282 0.11480333
0.92184412 -0.036448862 0.11031307
0.78834349 -0.03191727 0.12299822
0.79690731 -0.027610678 0.11942787
0.80485928 -0.024899928 0.11513153
0.81268805 -0.021270189 0.1112999
0.82258123 -0.017234543 0.10888029
0.88812637 -0.018853903 0.11907525
0.89581084 -0.021384494 0.11736993
0.90448236 -0.024999971 0.11499406
0.91357338 -0.028566601 0.11146975
0.80213922 -0.021022942 0.11924174
0.80602896 -0.019414248 0.11715806
0.81422228 -0.01522364 0.11535508
0.82453728 -0.012452155 0.11417879
0.83519053 -0.010331718 0.11485172
0.84433442 -0.0091440137 0.11360609
0.85426027 -0.0076392014 0.11493529
0.86580884 -0.0097428439 0.1153914
0.87563396 -0.01306609 0.11613517
0.88487715 -0.015325351 0.11549407
0.89318383 -0.018112835 0.11401898
0.90082628 -0.019390497 0.11069329
0.81102067 -0.010924797 0.12216694
0.81308007 -0.011091159 0.12100343
0.82573974 -0.010525707 0.11833152
0.83452743 -0.010063456 0.11558692
0.84510732 -0.0086490503 0.11433175
0.8552742 -0.0075029777 0.11542742
0.86317831 -0.0090502016 0.11616291
0.8729552 -0.011264663 0.11151444
0.81577569 -0.0094535388 0.12265241
0.84714586 -0.0081847655 0.11541397
0.85269314 -0.007674058 0.11533827
0.83790642 -0.085886896 0.12154398
0.80825788 -0.078994319 0.12973249
0.81427109 -0.080265701 0.12779279
0.82538915 -0.083428927 0.12594032
0.83405411 -0.0853168 0.12493407
0.84447324 -0.086787999 0.12424347
0.85526347 -0.086927302 0.12580426
0.86596096 -0.085413411 0.12499791
0.87592602 -0.084440261 0.12331031
0.88400841 -0.082067207 0.12288861
0.89085013 -0.079959318 0.12191032
0.79196006 -0.070418008 0.13175409
0.79676127 -0.071553767 0.1275308
0.80525953 -0.074518822 0.1253383
0.81428337 -0.078504071 0.12321648
0.82202822 -0.081625983 0.12426863
0.8769626 -0.080824628 0.12867165
0.88618845 -0.077800758 0.12745598
0.89398509 -0.075868234 0.12411185
0.90260714 -0.073253267 0.12066007
0.78039092 -0.058229547 0.1318728
0.78777927 -0.061664574 0.12729099
0.79425359 -0.066922635 0.12500359
0.80280375 -0.069163322 0.12036035
0.89787734 -0.066741802 0.12848105
0.90436912 -0.064914055 0.12458082
0.91056073 -0.063755237 0.12049336
0.77616769 -0.052632712 0.13301554
0.77916276 -0.053274374 0.12919107
0.78489071 -0.055832058 0.12326974
0.79213309 -0.059887156 0.11888588
0.89864963 -0.054260243 0.13134132
0.90539747 -0.054780453 0.12622911
0.91268367 -0.053544473 0.12109854
0.77574068 -0.045390978 0.13234988
0.77868867 -0.04486594 0.12808603
0.78219575 -0.04456646 0.12284238
0.78832841 -0.046353023 0.11700226
0.89823258 -0.043957416 0.13061175
0.90551466 -0.044523261 0.1259049
0.91162837 -0.043494236 0.12097048
0.77627635 -0.038728729 0.13333781
0.78000671 -0.036158759 0.12876049
0.78520364 -0.034371924 0.12413716
0.79163098 -0.03438748 0.11850553
0.88997948 -0.031596079 0.13126439
0.89744717 -0.033579342 0.12723236
0.90401125 -0.035664577 0.12342118
0.91004503 -0.036293641 0.11949407
0.78195745 -0.029745067 0.12948987
0.78731036 -0.026009703 0.12695585
0.7938503 -0.023050265 0.12340707
0.8018195 -0.020416012 0.11830795
0.8756479 -0.019272923 0.13018532
0.88677496 -0.022815995 0.12576525
0.89430898 -0.026776293 0.1247573
0.9031086 -0.029147014 0.12006567
0.78972286 -0.019630685 0.12930673
0.79611772 -0.016614264 0.1265875
0.80518878 -0.013235622 0.12352075
0.81526804 -0.009686891 0.12386137
0.82420427 -0.0086461883 0.12462255
0.83444399 -0.0087061692 0.12518302
0.84551603 -0.0080610542 0.1256384
0.85578525 -0.0091189118 0.12623078
0.86576468 -0.012374274 0.12638901
0.87535101 -0.016266683 0.12531576
0.88222086 -0.019279357 0.12433589
0.89091349 -0.020601235 0.1199173
0.79705626 -0.01351704 0.13044934
0.80680346 -0.010607058 0.12629251
0.81653255 -0.0088809999 0.12599458
0.8263126 -0.0086650643 0.12554768
0.8360393 -0.0088577913 0.12603647
0.84584165 -0.0079272231 0.12470216
0.85222411 -0.008349536 0.12573147
0.86198574 -0.0096977754 0.1231892
0.79901242 -0.078491047 0.13687913
0.80646843 -0.080869891 0.13678117
0.81512976 -0.082285263 0.13486549
0.82555425 -0.084179468 0.13525259
0.83403927 -0.08461646 0.13503881
0.84515679 -0.084942237 0.1354835
0.85459691 -0.083683327 0.13576908
0.86466813 -0.08213383 0.13239798
0.87414265 -0.07989274 0.13191475
0.78297067 -0.066388771 0.14091916
0.78928888 -0.069989935 0.13665116
0.79512215 -0.075872198 0.13527466
0.80408573 -0.079136118 0.13352107
0.81380486 -0.08171726 0.13325439
0.86667228 -0.078054085 0.13799524
0.87547976 -0.075396717 0.13611297
0.8825106 -0.073835745 0.1337209
0.88959861 -0.070860103 0.13196337
0.7731843 -0.059080265 0.13983236
0.77410954 -0.058992449 0.14030688
0.78030521 -0.062045868 0.13694647
0.78520387 -0.065615982 0.1354223
0.79091227 -0.069293842 0.13080196
0.87922305 -0.070731141 0.13894364
0.88675505 -0.065161064 0.1377795
0.89357102 -0.064970106 0.13206935
0.77364469 -0.052878425 0.13907616
0.7757898 -0.054306433 0.134174
0.7786684 -0.057993248 0.13200893
0.88683647 -0.054635316 0.14073582
0.89480352 -0.055431511 0.13432656
0.89896929 -0.054685794 0.1308821
0.77420998 -0.045594547 0.13795479
0.77468276 -0.045398872 0.13433228
0.77435631 -0.046140838 0.13254406
0.88731533 -0.043979794 0.13879931
0.89463902 -0.045137692 0.13346252
0.77515256 -0.037562069 0.13682817
0.77559656 -0.034736898 0.13694192
0.77766383 -0.032874327 0.1325161
0.87963331 -0.03613 0.14100839
0.88538092 -0.033808846 0.13568342
0.8922289 -0.036294248 0.13200417
0.89780188 -0.039070394 0.12938341
0.77594781 -0.032426514 0.13780335
0.77891892 -0.027122494 0.1370163
0.78368598 -0.023863241 0.13266009
0.7874999 -0.020316396 0.13043129
0.86857265 -0.020629687 0.13735075
0.87512702 -0.0250606 0.13613969
0.8827675 -0.026738042 0.13240512
0.88991678 -0.030161809 0.13049844
0.7831009 -0.021281993 0.1364916
0.78632063 -0.01810907 0.13568029
0.79415077 -0.012722165 0.1357435
0.80420858 -0.009723709 0.13370498
0.81480628 -0.0083230548 0.13291705
0.82536989 -0.0087805502 0.13512662
0.83505976 -0.010052722 0.13659811
0.84485155 -0.011213422 0.13590698
0.85526085 -0.013059446 0.13651711
0.86481678 -0.01526266 0.1335298
0.8726365 -0.018611889 0.13213909
0.88007951 -0.021983957 0.12954612
0.7914691 -0.014001837 0.13635999
0.79600656 -0.011461277 0.13752997
0.80470574 -0.0091941487 0.1368444
0.81471187 -0.008120344 0.13647193
0.82475817 -0.008552352 0.13374169
0.83419794 -0.010139968 0.13420087
0.84289545 -0.010393577 0.13371244
0.85959572 -0.010660089 0.1267264
0.78956121 -0.073736288 0.1480809
0.79849434 -0.079481982 0.14747882
0.80574399 -0.081920601 0.14523558
0.81543678 -0.083156258 0.14487238
0.82514858 -0.083006315 0.14471023
0.8346886 -0.083066076 0.14405477
0.84439546 -0.082284935 0.14408579
0.85618758 -0.080056116 0.14121023
0.85958982 -0.079030968 0.14117381
0.77383548 -0.06303668 0.14598189
0.78188711 -0.068707213 0.1472078
0.78710228 -0.071779355 0.14577651
0.79358619 -0.076779447 0.14369477
0.80236167 -0.080819726 0.14336523
0.84529239 -0.079785168 0.14799128
0.85612601 -0.076816469 0.14655496
0.86565268 -0.073406905 0.14422013
0.8708216 -0.073212199 0.14136779
0.88119698 -0.068523549 0.13909185
0.77133447 -0.060436979 0.14368588
0.77367908 -0.060624167 0.14570919
0.77639037 -0.064951137 0.14573888
0.7805984 -0.068374194 0.14451967
0.86691213 -0.066613428 0.14939843
0.87462437 -0.065276243 0.14552318
0.88195145 -0.065040022 0.14080399
0.88907659 -0.062453318 0.13685369
0.77358693 -0.053572368 0.14577641
0.77277744 -0.055715483 0.14398299
0.77317452 -0.059518982 0.14454816
0.87015092 -0.057441179 0.15130699
0.87593216 -0.055544328 0.14767928
0.88304406 -0.05304306 0.1429179
0.88971424 -0.051215213 0.13862745
0.77467406 -0.045254543 0.14649881
0.77384824 -0.043879014 0.14506653
0.77280998 -0.044548832 0.14361611
0.86787063 -0.045851842 0.15269946
0.87548435 -0.044334289 0.14645945
0.88255954 -0.04414437 0.14219938
0.77499568 -0.039064396 0.14538416
0.77500117 -0.034802407 0.14538231
0.77436602 -0.033102285 0.14487618
0.86660439 -0.033557832 0.14824244
0.87439001 -0.035529308 0.14413352
0.88159478 -0.038191456 0.14054434
0.77664089 -0.031396694 0.14470147
0.77806455 -0.026582953 0.14495587
0.78118736 -0.021396497 0.14470065
0.85070187 -0.019903822 0.15077104
0.85601568 -0.02202736 0.14815989
0.8644588 -0.025019739 0.14357011
0.8723157 -0.027206616 0.14027888
0.78186804 -0.020642361 0.14398962
0.7851764 -0.016792538 0.14561935
0.79264975 -0.010987494 0.14524835
0.80513024 -0.0087226508 0.14213274
0.81571722 -0.0095736952 0.14598872
0.82587314 -0.01020626 0.14447835
0.83599299 -0.012370658 0.14514695
0.84558707 -0.014721498 0.14518097
0.85487986 -0.017308556 0.14302957
0.86142612 -0.018696591 0.14061941
0.79038298 -0.012723909 0.14378147
0.79650891 -0.0095919929 0.14556371
0.80470896 -0.0088296095 0.14541177
0.8152675 -0.0093803871 0.14487171
0.82447863 -0.010350411 0.14430609
0.83197331 -0.010454595 0.14227878
0.84968489 -0.012791883 0.13900547
0.79722548 -0.079059683 0.15343182
0.80513251 -0.081681676 0.15507127
0.81466234 -0.082016818 0.15329009
0.82417047 -0.08143872 0.15300076
0.83466589 -0.079971261 0.15293846
0.84030241 -0.079642765 0.1511952
0.77696151 -0.063320622 0.15517385
0.77830434 -0.065085083 0.15216286
0.78635579 -0.072267063 0.15491766
0.79424703 -0.077804506 0.15526782
0.80299705 -0.081323944 0.15581633
0.81525993 -0.080859527 0.15798447
0.82497698 -0.080702834 0.15518333
0.83540297 -0.077742293 0.15659983
0.84581655 -0.074504226 0.15562591
0.85389209 -0.073866509 0.15176387
0.85962903 -0.071468137 0.15010299
0.77507216 -0.058616664 0.15426789
0.77702278 -0.063391566 0.15366574
0.78100872 -0.067696184 0.15510613
0.78811204 -0.074543804 0.15802346
0.84621435 -0.068826787 0.160797
0.85600674 -0.065546192 0.1570866
0.86340058 -0.063739561 0.15341477
0.77371484 -0.052765753 0.15440208
0.77340406 -0.05557023 0.15471266
0.77376896 -0.055914178 0.15638708
0.85837197 -0.055119596 0.15975027
0.86572969 -0.055242956 0.15464853
0.87059444 -0.051477738 0.15140231
0.87669259 -0.05225233 0.14742194
0.77497828 -0.046207037 0.1573963
0.77278101 -0.045506805 0.15467249
0.77261251 -0.046107419 0.159759
0.85814154 -0.044103913 0.15850559
0.86494517 -0.044892747 0.15416412
0.87112546 -0.044510596 0.14990264
0.77535665 -0.038463708 0.15423255
0.77551782 -0.034656767 0.15575397
0.77599883 -0.03113112 0.15628357
0.85005832 -0.029895738 0.16031827
0.8563329 -0.034060847 0.15640132
0.86282039 -0.036026176 0.15154874
0.77691555 -0.033799592 0.15943907
0.77952611 -0.026933443 0.15446299
0.782242 -0.022766382 0.15569037
0.83834833 -0.019111838 0.15969545
0.84689057 -0.022923086 0.15713729
0.85452396 -0.027186029 0.15440597
0.78263503 -0.021817332 0.15288313
0.78686398 -0.016972199 0.15413532
0.79390514 -0.012159439 0.15615182
0.80589759 -0.0098046614 0.15686676
0.81545037 -0.010496477 0.15741338
0.82513458 -0.012606108 0.15533015
0.83512563 -0.01478174 0.15456611
0.84381264 -0.017912442 0.15370691
0.84854633 -0.022085952 0.15472183
0.79030287 -0.013433403 0.15304266
0.79595143 -0.010780763 0.15459907
0.80455911 -0.0093690678 0.15485349
0.81438059 -0.0093114497 0.1527659
0.82385027 -0.011626163 0.15438233
0.79169387 -0.075631939 0.16217469
0.79801422 -0.078905724 0.16381964
0.80612671 -0.080633074 0.16231453
0.81475598 -0.079278477 0.16269065
0.78248841 -0.06528914 0.16043822
0.7885232 -0.071141675 0.16287905
0.79427081 -0.075256191 0.16548698
0.80452466 -0.078862026 0.16763812
0.81524312 -0.07782153 0.16560686
0.82589746 -0.075519614 0.16457431
0.83445823 -0.073023275 0.16378488
0.84197694 -0.071380921 0.16078158
0.77608675 -0.055579413 0.15989462
0.77755558 -0.057266172 0.16047537
0.78492206 -0.065918893 0.16619839
0.79076326 -0.069829322 0.16859654
0.83083266 -0.067334242 0.17127059
0.83639085 -0.067201152 0.16799678
0.84481293 -0.064311191 0.16459951
0.85217065 -0.063438617 0.16056874
0.86149925 -0.0611897 0.15576495
0.76038647 -0.04859814 0.1737617
0.77357268 -0.051278379 0.16544572
0.77693743 -0.053521845 0.16593221
0.77973014 -0.058974184 0.16919793
0.83981204 -0.05934028 0.17009719
0.84618258 -0.053089689 0.16774349
0.8540681 -0.05490749 0.16242458
0.859779 -0.057564586 0.15815721
0.75905234 -0.044466063 0.17444186
0.7649979 -0.045727801 0.17174253
0.77188587 -0.045269474 0.16822985
0.77334958 -0.046675496 0.16475739
0.77256763 -0.043094762 0.16706383
0.84008336 -0.046919912 0.17254162
0.84590113 -0.044878203 0.16764258
0.8525849 -0.044461895 0.16234431
0.8612119 -0.048063811 0.15754981
0.76486695 -0.042549573 0.17229339
0.77275091 -0.040594935 0.16821279
0.77710283 -0.036505375 0.1653614
0.78103733 -0.029992906 0.16794693
0.83859611 -0.031878866 0.1708902
0.84555393 -0.034863371 0.16605553
0.85195923 -0.036939833 0.16076203
0.77352285 -0.03747002 0.16801088
0.7801441 -0.029520201 0.16262408
0.78480589 -0.024854565 0.16521958
0.79127574 -0.021792324 0.16839124
0.82669073 -0.019593494 0.16935067
0.83616471 -0.023213848 0.16679524
0.84392732 -0.026409382 0.16280824
0.78858048 -0.019678133 0.16175757
0.79542047 -0.015071648 0.1646371
0.80473548 -0.013082482 0.16594076
0.81561434 -0.013146046 0.16534434
0.82454723 -0.015869001 0.16431837
0.83413875 -0.018506736 0.16101865
0.84193307 -0.022150453 0.16031384
0.80440223 -0.011586023 0.16287749
0.81159532 -0.010917013 0.16014612
0.79623425 -0.074677147 0.16933605
0.8015002 -0.076916434 0.16925797
0.79079688 -0.069332749 0.16900341
0.79704016 -0.071461946 0.17238183
0.8051495 -0.073667325 0.1738722
0.81442451 -0.072430924 0.17264201
0.82150441 -0.071239099 0.17111725
0.77189851 -0.049328599 0.17485157
0.78880519 -0.061323285 0.17166151
0.79498905 -0.065366164 0.17558661
0.80434573 -0.066540331 0.17850262
0.81532955 -0.067342676 0.17882663
0.82430971 -0.066560619 0.17577967
0.83289182 -0.0643268 0.17240524
0.84252805 -0.061195612 0.16771197
0.75523096 -0.045634188 0.18055311
0.76303548 -0.050155152 0.17982972
0.7636798 -0.048983373 0.17342556
0.77699304 -0.04865367 0.17126465
0.78452516 -0.055113904 0.17615995
0.79353219 -0.056670513 0.17834136
0.80170453 -0.057269789 0.18219423
0.8177368 -0.059260231 0.18371467
0.82690048 -0.056805711 0.18024638
0.83620596 -0.054925621 0.17414808
0.83966893 -0.053196728 0.17212564
0.75712144 -0.046995845 0.17738271
0.76136869 -0.045107689 0.17735475
0.76652521 -0.045918308 0.17563185
0.77320099 -0.044457462 0.17146043
0.78558284 -0.044493079 0.17624605
0.79066271 -0.04540303 0.18172395
0.80073714 -0.043817565 0.18497461
0.82773143 -0.044316493 0.18092152
0.83624184 -0.044899415 0.17558244
0.84209663 -0.046666991 0.17099172
0.75675231 -0.044589233 0.17447062
0.76286745 -0.043265063 0.17611578
0.76961809 -0.04185573 0.175413
0.77594489 -0.041036744 0.17295673
0.78552711 -0.037709702 0.17278649
0.79315203 -0.034080543 0.1808107
0.8030256 -0.031390376 0.18334784
0.81378317 -0.030443078 0.1833712
0.82620245 -0.033146251 0.1785416
0.83514172 -0.035035402 0.17393336
0.84299672 -0.038325608 0.16890375
0.76273501 -0.038282864 0.17751357
0.77148211 -0.03932194 0.17472671
0.77946496 -0.03708405 0.17181896
0.78844738 -0.029790994 0.17061241
0.79561961 -0.025100445 0.17457023
0.80397767 -0.022360051 0.1775704
0.8159278 -0.023003569 0.17777754
0.82491368 -0.024399729 0.17487182
0.83384299 -0.027182706 0.17164844
0.84220546 -0.026287768 0.16482489
0.79016101 -0.023150684 0.16762558
0.79753864 -0.019658234 0.17175601
0.80481362 -0.0170538 0.17254844
0.81314504 -0.017589133 0.17234048
0.82190305 -0.019624759 0.17023875
0.80557764 -0.068157032 0.17797782
0.76196188 -0.048251152 0.18299517
0.76578379 -0.049448147 0.18070684
0.77893621 -0.050346367 0.17519611
0.79743272 -0.062281411 0.17729406
0.80513865 -0.063168399 0.18055937
0.81376624 -0.063896686 0.18132405
0.82344133 -0.061417516 0.18057431
0.8295927 -0.060368735 0.1769861
0.75646842 -0.051634416 0.18224916
0.76075327 -0.047342546 0.18295066
0.76380152 -0.045149047 0.18043232
0.77328873 -0.045265209 0.17706291
0.78233463 -0.047421452 0.17448354
0.79664999 -0.05415976 0.18082982
0.80480248 -0.054746725 0.18455705
0.81443125 -0.055007216 0.18596327
0.82293856 -0.055081863 0.18303028
0.83195382 -0.054173961 0.17723934
0.75717884 -0.051535483 0.18068458
0.75773877 -0.047210179 0.18301046
0.76492685 -0.045015804 0.18702225
0.77461135 -0.047195435 0.18145539
0.78133613 -0.047115166 0.17510425
0.79551178 -0.044849705 0.18291749
0.8050676 -0.044880714 0.18573664
0.81501716 -0.045195758 0.18620329
0.82295346 -0.044117112 0.18361567
0.82960701 -0.047691099 0.18035854
0.75683075 -0.045269255 0.17858586
0.76192153 -0.044135407 0.1819559
0.76801622 -0.043268543 0.18263559
0.77372676 -0.042999398 0.1789277
0.78490663 -0.042068295 0.17721242
0.79632479 -0.036165852 0.18146092
0.80530256 -0.034409817 0.18456718
0.81446069 -0.034534223 0.18465914
0.82291836 -0.036190059 0.18188404
0.83051479 -0.035046633 0.17669713
0.83584803 -0.034822196 0.17365798
0.76275551 -0.036339056 0.17998672
0.76793528 -0.037933875 0.1809893
0.79494226 -0.031188522 0.17747179
0.80487829 -0.026780609 0.18131308
0.81474441 -0.027521897 0.18146767
0.82128167 -0.027710885 0.1783455
0.80261773 -0.023169706 0.17754363
0.81373447 -0.022557499 0.1778641
0.75493908 -0.049490772 0.18877617
0.7633788 -0.050063744 0.18525508
0.80932766 -0.05918707 0.18437403
0.75601536 -0.053077318 0.18595742
0.75941217 -0.051539421 0.18749505
0.76215887 -0.044940028 0.18904135
0.76970261 -0.04779093 0.18270366
0.80864966 -0.052614979 0.18551353
0.81732887 -0.05447581 0.18555044
0.81915897 -0.051445551 0.18511982
0.75841421 -0.050258756 0.18780942
0.76273179 -0.04910221 0.18698709
0.76547801 -0.047811951 0.18981406
0.76952827 -0.04452198 0.18403494
0.79634047 -0.045429438 0.18222836
0.80562973 -0.04598159 0.18591972
0.8119576 -0.041640401 0.18623099
0.75860018 -0.044879533 0.18360592
0.7644403 -0.042753063 0.18824017
0.76650357 -0.04187227 0.18721522
0.7713486 -0.042292662 0.18569188
0.80172861 -0.034622978 0.18310389
0.81048667 -0.03699477 0.18516493
0.76785201 -0.040946815 0.18647577
0.76808208 -0.038636159 0.18640998
0.8083818 -0.029805133 0.18323602
0.75834823 -0.044689458 0.19027534
0.76518506 -0.044780277 0.19071889
0.76779312 -0.044083633 0.18896073
0.76869071 -0.041664608 0.18868837
0 0 0 1 0 0 0 1 0 0 0 1 0 0 0 0 0 1026 1 0 0
