ply
format ascii 1.0
comment PCL generated
element vertex 1172
property float x
property float y
property float z
element camera 1
property float view_px
property float view_py
property float view_pz
property float x_axisx
property float x_axisy
property float x_axisz
property float y_axisx
property float y_axisy
property float y_axisz
property float z_axisx
property float z_axisy
property float z_axisz
property float focal
property float scalex
property float scaley
property float centerx
property float centery
property int viewportx
property int viewporty
property float k1
property float k2
end_header
0.93056041 -0.13522202 0.051096693
0.93592441 -0.13622805 0.047769442
0.9247517 -0.12508985 0.057623375
0.93033779 -0.12595347 0.052189063
0.93840557 -0.12532115 0.048843201
0.94535631 -0.1137196 0.054379608
0.93672824 -0.15113197 0.058860339
0.92750549 -0.14065355 0.057463631
0.93413067 -0.14461367 0.055020865
0.92162853 -0.13361134 0.061139271
0.92540377 -0.13550805 0.056072876
0.93223315 -0.13843755 0.051616173
0.91875911 -0.12438647 0.06198433
0.92608047 -0.12333715 0.057659846
0.93254966 -0.12278292 0.052396622
0.94517046 -0.12095968 0.049728427
0.92117757 -0.12117285 0.062394127
0.92885214 -0.11833067 0.05998192
0.93539661 -0.11647975 0.055763088
0.94452739 -0.11417259 0.054045416
0.93813843 -0.11102992 0.060760673
0.94769478 -0.10746464 0.058041051
0.94338 -0.10507598 0.063959338
0.93570107 -0.15319203 0.066046461
0.92017245 -0.1409097 0.068352796
0.92596698 -0.14478317 0.065271616
0.93076175 -0.14920615 0.063284941
0.91117752 -0.13305178 0.071784534
0.91671485 -0.13536093 0.067299195
0.92217058 -0.13828516 0.063630521
0.90701598 -0.12214511 0.071226873
0.90860868 -0.12343557 0.069952555
0.91508394 -0.12466596 0.064541489
0.92241234 -0.12280203 0.060100086
0.93391001 -0.11690513 0.055649515
0.90571588 -0.12083834 0.072565198
0.90844858 -0.11961637 0.071403913
0.91628623 -0.11738256 0.068356045
0.92484492 -0.11561617 0.064912319
0.93266523 -0.11225384 0.062387221
0.94096464 -0.10900897 0.060015284
0.91749036 -0.11311956 0.073447809
0.930031 -0.10931772 0.07034269
0.93698525 -0.10852688 0.065352984
0.94280034 -0.10330938 0.065471008
0.95363533 -0.10164032 0.061746139
0.93989694 -0.10204709 0.070855983
0.94733322 -0.099301748 0.068333372
0.95431763 -0.097156353 0.066324912
0.95908648 -0.091660745 0.071351558
0.94784141 -0.17003748 0.077455625
0.93695748 -0.16168556 0.075905867
0.94433784 -0.16645221 0.074059799
0.95123589 -0.16740923 0.069823101
0.9262678 -0.15243363 0.076104045
0.93413228 -0.15807118 0.074449539
0.9095251 -0.14005868 0.078754716
0.91547942 -0.1444014 0.075255103
0.92281055 -0.14803036 0.072602205
0.90233833 -0.13271716 0.080489807
0.90578341 -0.13443929 0.076546691
0.9130758 -0.13894956 0.074135497
0.89331746 -0.12264036 0.083442815
0.89913136 -0.12392029 0.077207789
0.90346777 -0.12291875 0.073377699
0.91004342 -0.11973043 0.069996342
0.91606909 -0.11899994 0.066061884
0.89890456 -0.11840048 0.079691507
0.90674448 -0.11613733 0.075474255
0.91418689 -0.11270149 0.074366689
0.9224745 -0.11161254 0.07107953
0.93373537 -0.10756303 0.068071425
0.90524697 -0.11476511 0.0803947
0.91689789 -0.10961626 0.079370365
0.92537755 -0.10755005 0.075125754
0.93353915 -0.10315986 0.073898643
0.94156134 -0.099880934 0.070627823
0.9551453 -0.095045723 0.06762863
0.91522616 -0.10640271 0.084416583
0.92769903 -0.10010435 0.082669564
0.93775368 -0.099242195 0.076648951
0.94490057 -0.094194427 0.075868651
0.95307767 -0.093708061 0.071510047
0.96444452 -0.089838102 0.071603164
0.93955743 -0.093189746 0.081938691
0.94917172 -0.089579791 0.07986816
0.9554736 -0.086728588 0.078123912
0.96547699 -0.084733747 0.07432428
0.96041209 -0.08242695 0.079542503
0.96666753 -0.078987978 0.0792275
0.96959394 -0.074286066 0.08273343
0.93892586 -0.17024693 0.089240633
0.9450807 -0.1728299 0.086029008
0.95518935 -0.17353748 0.085597545
0.92832375 -0.16115613 0.085735716
0.93519551 -0.16632569 0.084818378
0.94084001 -0.16834815 0.083126418
0.96033382 -0.17183755 0.087498233
0.91699618 -0.15229402 0.086365297
0.92333865 -0.15638812 0.084883332
0.93050975 -0.16053385 0.081718147
0.89912617 -0.14067607 0.088131316
0.90512258 -0.14424516 0.085558504
0.91349924 -0.1484606 0.082605734
0.88968116 -0.1316711 0.090670563
0.89641929 -0.13414198 0.087078035
0.90307456 -0.13810492 0.082761012
0.88321054 -0.12315127 0.092673287
0.88878453 -0.1229413 0.088002272
0.89261663 -0.12513033 0.0832019
0.89821184 -0.12026571 0.078587346
0.88298249 -0.12071984 0.094044536
0.88914979 -0.11817932 0.089301318
0.89484763 -0.11655828 0.085240953
0.90239596 -0.11298418 0.082162656
0.91115505 -0.11009455 0.079500556
0.92066586 -0.10719495 0.078186885
0.89954114 -0.11086353 0.090979479
0.90673834 -0.10937132 0.087360173
0.9149279 -0.10460319 0.085237421
0.92375386 -0.1022883 0.081926785
0.93351221 -0.097428322 0.080363259
0.91827792 -0.10012219 0.089522496
0.92671651 -0.097114958 0.086992301
0.93394017 -0.095095277 0.08362636
0.94345576 -0.091891602 0.079953037
0.95187879 -0.088088848 0.079167753
0.93712151 -0.089108601 0.089766607
0.94412714 -0.087287284 0.085980125
0.95345128 -0.083301127 0.083807305
0.9621712 -0.080392808 0.08021836
0.96883577 -0.076693222 0.080009282
0.94287425 -0.083522074 0.092279598
0.95056099 -0.080080412 0.090370588
0.9573884 -0.07737796 0.08827813
0.96352148 -0.075665057 0.084446073
0.97386706 -0.072058558 0.083427683
0.96811622 -0.070520863 0.088726126
0.97820085 -0.067019552 0.087421492
0.92689312 -0.1689477 0.099864937
0.93567222 -0.17130409 0.096813194
0.94522911 -0.17196886 0.095025554
0.95314282 -0.17082298 0.092459977
0.96254623 -0.16839258 0.090115845
0.91854203 -0.16149583 0.096257418
0.92542624 -0.16563468 0.095379546
0.9319281 -0.16925916 0.093909204
0.94729739 -0.16973002 0.0988167
0.95631492 -0.16767132 0.09648589
0.96484476 -0.16455039 0.094053559
0.90043974 -0.15011719 0.10040533
0.90595955 -0.15142068 0.096988268
0.91397464 -0.15655196 0.095093325
0.92001444 -0.15946838 0.092092752
0.96668404 -0.15934758 0.098439455
0.89022273 -0.14049241 0.1001628
0.89527482 -0.14408614 0.096167266
0.9023838 -0.14716816 0.092717908
0.91003889 -0.1515919 0.092819735
0.88098037 -0.12973595 0.098866187
0.88677979 -0.1339096 0.096374042
0.89316034 -0.13808836 0.092702039
0.87727469 -0.125176 0.10007492
0.88207644 -0.12609056 0.094185226
0.88653606 -0.11750613 0.091376945
0.87675852 -0.12200176 0.1010038
0.8799485 -0.11839459 0.098722763
0.88491428 -0.11565743 0.095032737
0.8920247 -0.1128557 0.091800384
0.89979398 -0.10897968 0.090117
0.88422424 -0.11325521 0.10124914
0.88991046 -0.11000007 0.09951406
0.89508241 -0.10864457 0.096697301
0.90374297 -0.10471002 0.094433881
0.91214645 -0.10058375 0.092214674
0.92247015 -0.097393364 0.089339904
0.90044987 -0.10257653 0.099690646
0.90837479 -0.097467169 0.099966414
0.91621292 -0.096545905 0.09617307
0.92359412 -0.093591884 0.093180068
0.93183905 -0.090880327 0.090621926
0.94415867 -0.085595623 0.087528944
0.91064847 -0.093432464 0.10343155
0.92030627 -0.092262499 0.098791651
0.92591262 -0.088556767 0.098751284
0.93579024 -0.085992374 0.093932845
0.9431771 -0.082598023 0.092468031
0.95197171 -0.077964991 0.090664834
0.93176395 -0.083674103 0.099926531
0.93745339 -0.080659218 0.099111013
0.94590431 -0.077421024 0.096909478
0.95486593 -0.074268818 0.094135061
0.96342546 -0.070309095 0.091614448
0.95695817 -0.06995362 0.098821625
0.96615732 -0.066295177 0.095509514
0.9742685 -0.063051075 0.094202645
0.98243386 -0.061441135 0.092048429
0.96881372 -0.060713343 0.10080972
0.97747338 -0.05947591 0.096945144
0.9856475 -0.055720367 0.096261039
0.98806053 -0.050811909 0.10048871
0.91691643 -0.16854832 0.1095279
0.92539006 -0.17053072 0.1069153
0.93414271 -0.17116012 0.10396689
0.94271666 -0.16912217 0.10176178
0.90646642 -0.16159235 0.10862792
0.91461468 -0.16586831 0.10541924
0.92123783 -0.16933046 0.10418117
0.93700665 -0.16857269 0.10750401
0.94598389 -0.1651082 0.10550932
0.95502168 -0.16277161 0.10226949
0.89675415 -0.15187368 0.1074704
0.90477717 -0.15675563 0.10410139
0.91106337 -0.15974836 0.10183297
0.94446552 -0.1626 0.11009326
0.95641941 -0.15704815 0.10702723
0.96476978 -0.15415888 0.10426255
0.88761437 -0.14225708 0.107292
0.89440006 -0.14728914 0.1032659
0.96741575 -0.14880192 0.10837089
0.87541604 -0.12818554 0.10735977
0.87920713 -0.13251197 0.10672127
0.88465101 -0.13567039 0.10347642
0.87537301 -0.1237634 0.10653434
0.8755852 -0.12516385 0.10608996
0.87725514 -0.12035098 0.10104381
0.87568754 -0.12071396 0.10559323
0.87749302 -0.11705926 0.10638549
0.88105059 -0.11266069 0.10425212
0.88553101 -0.10850985 0.10330584
0.88243204 -0.1112814 0.10730643
0.88717109 -0.10667975 0.10652095
0.89365393 -0.10226326 0.1038232
0.90083885 -0.1000876 0.10110766
0.90652597 -0.097633868 0.099598616
0.889826 -0.10333944 0.10925268
0.89799893 -0.09742225 0.10705805
0.90373391 -0.094935395 0.10491478
0.9134236 -0.091964751 0.10250781
0.92240804 -0.088944264 0.10030127
0.92670244 -0.085510276 0.099931955
0.89893663 -0.094046406 0.11067659
0.90714896 -0.090008378 0.10968867
0.91548586 -0.087573186 0.10690792
0.9248938 -0.083280653 0.10446037
0.93287849 -0.080846921 0.10186533
0.94347358 -0.076544225 0.099492937
0.9179557 -0.082770549 0.11052839
0.92715269 -0.077740282 0.11062551
0.93641931 -0.075172946 0.10678357
0.94343948 -0.073886819 0.10369452
0.95274013 -0.070907496 0.10139078
0.92928928 -0.073950812 0.1139254
0.93987763 -0.072211109 0.10923003
0.94869143 -0.068716876 0.10738122
0.95503694 -0.065467238 0.10595742
0.96328515 -0.061865024 0.10289415
0.97076231 -0.059252307 0.10064613
0.95844626 -0.060038563 0.1098749
0.96612442 -0.057104971 0.10667195
0.97405571 -0.05405654 0.10506126
0.98328614 -0.052367263 0.10173342
0.96205759 -0.054119088 0.11362279
0.97000551 -0.051543903 0.11116613
0.97581857 -0.05075191 0.10826984
0.98593271 -0.046900742 0.10635744
0.99436963 -0.043736175 0.10344549
0.98907536 -0.041257322 0.11037629
0.99758661 -0.03788922 0.1079095
0.90642375 -0.16641149 0.11769471
0.9149859 -0.17011784 0.1162439
0.92347616 -0.16917823 0.11308392
0.93124741 -0.16903199 0.11014982
0.89888519 -0.15916948 0.1153594
0.90518761 -0.16433379 0.11536094
0.91316825 -0.16925353 0.11472326
0.92631847 -0.1673616 0.11644292
0.93502045 -0.16477001 0.11436261
0.94126934 -0.16146541 0.11306186
0.88865268 -0.15038261 0.1159665
0.89524299 -0.15646848 0.11603362
0.90096629 -0.1585592 0.11113888
0.93719107 -0.15874316 0.11881008
0.9459911 -0.15547207 0.11533254
0.95416057 -0.15219051 0.11278935
0.96139455 -0.15031013 0.11058166
0.88248682 -0.14109553 0.11780578
0.88413936 -0.14424042 0.11593635
0.88978279 -0.15040322 0.1146103
0.94498616 -0.15105544 0.12032366
0.95575309 -0.14788587 0.11661889
0.96439886 -0.14445947 0.11490387
0.97277933 -0.141948 0.11248192
0.87660259 -0.13303576 0.11088528
0.87832743 -0.13411236 0.1147534
0.87954348 -0.13597208 0.11687425
0.96816289 -0.13908844 0.11874352
0.97577566 -0.13680796 0.11685392
0.87615758 -0.12586436 0.11028954
0.8776831 -0.12531589 0.11330959
0.87909049 -0.12397783 0.11739152
0.87712473 -0.12089565 0.10928147
0.87992942 -0.11598125 0.11335907
0.8817184 -0.11311793 0.11619437
0.8832109 -0.1092774 0.11362695
0.88520449 -0.10530306 0.11581934
0.88914871 -0.09999276 0.11492785
0.88986129 -0.098851345 0.11693624
0.89366597 -0.095008411 0.11515798
0.90068537 -0.089804865 0.11334522
0.91060382 -0.08728344 0.1086872
0.89493763 -0.093754299 0.11605561
0.89841396 -0.089625366 0.11789539
0.90539616 -0.085395314 0.11537251
0.91317505 -0.082635321 0.1129462
0.92261714 -0.079357244 0.11052462
0.90448409 -0.084481351 0.119109
0.90921956 -0.080562361 0.11999768
0.91759259 -0.077410512 0.11732493
0.92566067 -0.074357055 0.11541179
0.93348658 -0.071727388 0.11293498
0.94453377 -0.068402551 0.10998794
0.9262343 -0.070371293 0.12038923
0.93728656 -0.067298837 0.11686005
0.94545549 -0.064151078 0.11516102
0.95406246 -0.061521873 0.11172087
0.96090353 -0.05770757 0.10981717
0.9368149 -0.062258184 0.12358183
0.94822907 -0.058839902 0.12005484
0.95467627 -0.056804139 0.11608112
0.96287823 -0.053267412 0.11349484
0.97126228 -0.049413912 0.11215673
0.97761184 -0.047369812 0.10993294
0.95836604 -0.051441569 0.11926598
0.96791881 -0.047926869 0.11666571
0.97510642 -0.044587053 0.11484346
0.98332345 -0.042839155 0.1120465
0.99086922 -0.038519919 0.1122427
0.96697104 -0.043797951 0.12188432
0.97808439 -0.040806342 0.11870169
0.98504531 -0.037357081 0.11806922
0.99458534 -0.0340649 0.11454613
1.0029691 -0.032063115 0.1120172
0.99092972 -0.032857522 0.12017934
0.99851334 -0.028641926 0.1193548
1.0058457 -0.028127344 0.11540006
0.90214568 -0.16583718 0.12819859
0.90637624 -0.16864668 0.12326903
0.91451454 -0.168354 0.12180538
0.92068774 -0.16769539 0.1185501
0.89073342 -0.15767944 0.12535532
0.8959356 -0.16257121 0.12653753
0.90499842 -0.16827664 0.12571566
0.91508132 -0.16749182 0.12543085
0.92398649 -0.1635077 0.12303599
0.93080819 -0.16105574 0.12104725
0.88526386 -0.14956437 0.12446694
0.88779998 -0.15347153 0.12476516
0.89014536 -0.15737593 0.12681329
0.91863483 -0.1616061 0.12959781
0.92713916 -0.15679947 0.12759498
0.93491966 -0.15454215 0.12442542
0.94218022 -0.1523183 0.12099678
0.88266951 -0.14287212 0.12196652
0.88417113 -0.14574578 0.12493531
0.88643074 -0.14595127 0.12991822
0.93733197 -0.14912809 0.1279265
0.94553387 -0.14658953 0.12528428
0.95358199 -0.14354812 0.12278263
0.96296322 -0.13958913 0.12101593
0.88265967 -0.13408709 0.12224036
0.88358337 -0.13505435 0.12474481
0.88747555 -0.13516557 0.13016349
0.94881856 -0.14036871 0.13011298
0.95725226 -0.1381778 0.12661265
0.96524876 -0.13506205 0.12523864
0.97450793 -0.13252215 0.12256683
0.98089695 -0.12777887 0.1245399
0.88212955 -0.12622678 0.12013929
0.88544095 -0.12474371 0.12422741
0.88921595 -0.12455741 0.12901239
0.96818578 -0.13051859 0.12877126
0.97718769 -0.12776375 0.12660593
0.98531735 -0.12451843 0.12566029
0.88249356 -0.11815093 0.11855691
0.88654435 -0.11570211 0.12348603
0.89046717 -0.11417796 0.12834089
0.98893607 -0.12064198 0.12817141
0.88596231 -0.10647281 0.11822227
0.88863409 -0.10593183 0.12301932
0.89133728 -0.10383098 0.12644102
0.89162302 -0.097764574 0.12337975
0.8932187 -0.094525874 0.12673178
0.89641154 -0.088287689 0.12497805
0.89424992 -0.091806747 0.12311249
0.89723921 -0.087231599 0.12644748
0.90131205 -0.082098283 0.12498815
0.91094208 -0.07664378 0.12191111
0.90055001 -0.081376813 0.12780662
0.90660453 -0.077240415 0.12702209
0.91377813 -0.073372692 0.12396013
0.92218852 -0.070966661 0.12084446
0.93430287 -0.067085944 0.1185179
0.93718678 -0.065349005 0.11838446
0.91203207 -0.07318484 0.12799975
0.91877306 -0.068774536 0.12809725
0.92575812 -0.065981135 0.12537502
0.93331629 -0.062937401 0.12435249
0.94199485 -0.061218396 0.12088571
0.95165664 -0.057176478 0.11821958
0.92804509 -0.061283838 0.12999608
0.93828958 -0.058721017 0.12677667
0.94526994 -0.054741021 0.12597869
0.95252448 -0.052914135 0.12214246
0.96090746 -0.048625253 0.11994782
0.94046086 -0.052117467 0.13273749
0.94853818 -0.048506524 0.13102125
0.95593244 -0.04720008 0.12612428
0.9641605 -0.043985769 0.12354286
0.97113389 -0.041162692 0.12193079
0.98110741 -0.037919331 0.12019596
0.95677435 -0.043287877 0.13138737
0.96711361 -0.03975654 0.12759809
0.97559988 -0.036694624 0.12574729
0.98291749 -0.033685092 0.12447039
0.9919799 -0.030147078 0.12183391
0.97976089 -0.032635231 0.12918882
0.98869485 -0.027655931 0.12793316
0.99578297 -0.025693765 0.12509301
1.0033519 -0.022237202 0.12434931
1.0116553 -0.020337714 0.12171764
0.99846005 -0.021325175 0.12912843
1.0081106 -0.017643603 0.12622048
1.0151728 -0.014891693 0.12566271
1.0199088 -0.0096199038 0.13017027
0.90303838 -0.16543858 0.13063154
0.89115685 -0.15617292 0.13107078
0.89802092 -0.16134341 0.13272849
0.90435249 -0.16240744 0.13305157
0.91233289 -0.16150072 0.13197352
0.88970023 -0.15262336 0.13192348
0.89431852 -0.15554014 0.13523303
0.90524876 -0.15746775 0.13820717
0.91566026 -0.15586394 0.13595943
0.92348599 -0.15331754 0.13412049
0.932015 -0.15010379 0.13098571
0.88500696 -0.14634295 0.12690206
0.88846695 -0.14511785 0.13243288
0.89323455 -0.14635231 0.13766895
0.89897364 -0.14631154 0.14253853
0.91928887 -0.14980069 0.14025205
0.92705405 -0.14835311 0.13772221
0.93534297 -0.14523453 0.1346027
0.9430722 -0.14202401 0.13236992
0.89027941 -0.13614266 0.13188784
0.8936829 -0.13596043 0.13671647
0.89862365 -0.13322435 0.14205416
0.93867815 -0.13905653 0.13996498
0.9466092 -0.13676976 0.13649341
0.95423067 -0.13456407 0.13333577
0.96319413 -0.13133267 0.13116866
0.89070433 -0.12579636 0.12985459
0.89499122 -0.12471484 0.13539335
0.89931327 -0.12555987 0.14105187
0.95747316 -0.12911899 0.13809873
0.965904 -0.1259574 0.13609059
0.97365171 -0.12351288 0.13360819
0.98226643 -0.11998563 0.13258092
0.89157587 -0.1137247 0.12897587
0.89555943 -0.11519548 0.13451153
0.89930224 -0.11483177 0.13991356
0.97670013 -0.11822598 0.13790661
0.98505634 -0.11520417 0.13593929
0.99374998 -0.11225183 0.13341168
0.99985784 -0.10954866 0.13288513
0.892129 -0.10628518 0.12871031
0.89576906 -0.10455237 0.13410535
0.90008807 -0.10392457 0.13916202
0.98830271 -0.10985025 0.13969649
0.99581933 -0.10692126 0.13799241
1.0048516 -0.10466842 0.13517107
0.89734107 -0.095421061 0.13321967
0.90123737 -0.094037972 0.13785863
1.0009322 -0.1005941 0.1419351
1.0072076 -0.099217981 0.13987966
0.89708573 -0.088858917 0.12908557
0.89940017 -0.086276926 0.13282798
0.90152681 -0.083636597 0.13689099
0.9020474 -0.078819618 0.13253985
0.90413272 -0.075533345 0.13616802
0.91044861 -0.069652893 0.13334535
0.90585548 -0.074085355 0.13334584
0.9108088 -0.068033032 0.13662392
0.91532493 -0.065234795 0.13602111
0.92312711 -0.0611674 0.13273084
0.93201023 -0.057848804 0.1304951
0.92008686 -0.06089383 0.13759181
0.92603266 -0.05730221 0.13707104
0.9348042 -0.054700159 0.13327239
0.94221157 -0.050986279 0.1317772
0.95044643 -0.048108496 0.12947947
0.93085796 -0.052551385 0.13925043
0.93797535 -0.048927441 0.13842216
0.94535112 -0.046482194 0.13548145
0.95339316 -0.043021265 0.13415265
0.96195984 -0.039104488 0.13203688
0.94926512 -0.04229027 0.13895209
0.95730561 -0.037830483 0.13900535
0.96518743 -0.035439789 0.13546568
0.97292984 -0.032640662 0.13336542
0.98195344 -0.028889794 0.1315475
0.98775721 -0.026207415 0.13031299
0.96833879 -0.029790552 0.14105545
0.97783405 -0.028172985 0.13589375
0.9848693 -0.025002811 0.13409156
0.99287349 -0.021259135 0.13230337
0.98712838 -0.019617857 0.1389031
0.99574822 -0.017268999 0.13490272
1.0036871 -0.013480011 0.13446195
1.0127193 -0.010127576 0.13212977
1.0216359 -0.0091514084 0.12920228
0.9949795 -0.013711249 0.14145286
1.0074506 -0.0094346898 0.13703901
1.0155538 -0.0053202128 0.13561635
1.0245959 -0.0020349349 0.13308758
1.0322152 0.00034632615 0.13452956
1.0169722 -0.0022469929 0.13887741
1.0261202 0.0020034155 0.13789581
1.0340719 0.00051406922 0.13616268
0.89809453 -0.15739799 0.13659748
0.90275145 -0.15908143 0.13620928
0.89331549 -0.15220094 0.13640615
0.89808053 -0.15257886 0.13988891
0.90570247 -0.15254004 0.14202987
0.91502523 -0.15110585 0.14109372
0.89314938 -0.14620574 0.13762714
0.89799762 -0.14346565 0.14183937
0.90444314 -0.14562026 0.14587454
0.91362381 -0.14499155 0.14693882
0.92420745 -0.14394055 0.14343511
0.93194163 -0.14184496 0.14163692
0.89831042 -0.13420546 0.14048046
0.90382612 -0.13564819 0.14704217
0.9116227 -0.13711733 0.15163267
0.92807096 -0.13851316 0.14791267
0.93556613 -0.1360912 0.14603065
0.94375813 -0.13375303 0.14233021
0.95295489 -0.12915027 0.14162026
0.89989358 -0.12540042 0.14039512
0.90430468 -0.1251855 0.14703979
0.90891659 -0.12434632 0.15240936
0.93721306 -0.13114506 0.15093496
0.94566399 -0.12824918 0.14798461
0.95527232 -0.12426295 0.14583191
0.96253711 -0.12278954 0.142364
0.90112692 -0.11579841 0.14128174
0.90465963 -0.11483539 0.14561167
0.90859264 -0.1149236 0.15076731
0.95936984 -0.11919215 0.14859892
0.96532774 -0.11689067 0.14706737
0.97424716 -0.11343672 0.14493494
0.98393732 -0.11040387 0.14229117
0.90142816 -0.10676643 0.14094447
0.90522861 -0.10469484 0.14523824
0.90890646 -0.10396427 0.14988925
0.97652119 -0.1092778 0.14855215
0.98547471 -0.10618887 0.14633119
0.99418581 -0.10321558 0.14343391
1.0046051 -0.099968821 0.14023405
0.90248042 -0.094708502 0.13977031
0.90553045 -0.094936259 0.14439517
0.90899706 -0.093739122 0.14913508
0.99635029 -0.097892247 0.14824128
1.0050493 -0.095341988 0.14540254
1.0137175 -0.093516804 0.14305018
0.90378779 -0.087030619 0.14062065
0.90566587 -0.084626138 0.14407095
0.91050333 -0.083883129 0.14906457
1.0074328 -0.089332171 0.15111656
1.0166172 -0.088519722 0.14749974
0.90457439 -0.077820711 0.13967548
0.90751952 -0.075602502 0.14320357
0.91080385 -0.073960587 0.14746647
0.90738899 -0.071705952 0.13844071
0.91038048 -0.068846531 0.14330482
0.91339725 -0.065037474 0.14583097
0.91886431 -0.057675075 0.14311132
0.91485274 -0.061817553 0.14556305
0.91771358 -0.058035444 0.14551532
0.92350608 -0.052943647 0.14565182
0.93126321 -0.049691994 0.14174248
0.94161016 -0.04630512 0.13783962
0.92228538 -0.053985 0.14642178
0.9286651 -0.049937241 0.14658912
0.93468577 -0.045297917 0.14618562
0.9419148 -0.041996259 0.14383487
0.953318 -0.039272707 0.13985443
0.93169272 -0.044285681 0.1522232
0.93896544 -0.041540943 0.14871004
0.9481585 -0.037193067 0.14730476
0.95405358 -0.034784112 0.14605403
0.96325248 -0.031383414 0.1424132
0.96973288 -0.028942799 0.14063895
0.9585107 -0.029157436 0.15035135
0.96581465 -0.027543806 0.14560394
0.97319764 -0.023370404 0.14502463
0.98264897 -0.020690996 0.14162929
0.96885896 -0.020716915 0.15151204
0.97769654 -0.019362528 0.1470072
0.98498267 -0.01481922 0.14685059
0.99403924 -0.012255648 0.14310595
1.0005124 -0.010324914 0.14077798
0.98733872 -0.012414894 0.14869684
0.99678957 -0.0072071445 0.14808378
1.0043684 -0.005092504 0.1442707
1.013485 -0.0010500817 0.1421348
1.0261585 0.003102842 0.13900177
1.0076299 0.0010977865 0.14923115
1.0155447 0.0038071009 0.14631131
1.0240777 0.0058220485 0.14441258
1.0349241 0.0052617798 0.14463399
1.0171822 0.0060035875 0.14867492
1.0256813 0.0069254092 0.14558822
1.0323964 0.0057344497 0.14470996
0.90383726 -0.1434214 0.1465738
0.90774661 -0.14138229 0.14880857
0.9144305 -0.14173879 0.14961176
0.92420101 -0.1370057 0.15060319
0.90253645 -0.13449766 0.14571588
0.90789193 -0.13489896 0.15040712
0.91530842 -0.13438392 0.1543255
0.92417097 -0.13430554 0.15358734
0.93408906 -0.13136905 0.15202196
0.90820885 -0.12483212 0.15140532
0.9141748 -0.12521243 0.1570556
0.92553818 -0.12739453 0.15973228
0.93514508 -0.12742086 0.15676011
0.94539595 -0.1233068 0.15380614
0.95240635 -0.12140898 0.15122801
0.90940237 -0.11503907 0.1508017
0.91368246 -0.11553802 0.15690961
0.91962618 -0.11410958 0.16309749
0.94071335 -0.12168831 0.1602044
0.9476012 -0.11906618 0.15772516
0.95480394 -0.11569927 0.15619701
0.96380669 -0.11238962 0.15303272
0.97310042 -0.10860404 0.1511813
0.90909958 -0.10656137 0.14964804
0.9141776 -0.10522445 0.15615582
0.9184562 -0.1049092 0.161933
0.96051115 -0.10810754 0.16072981
0.96578759 -0.10820915 0.15645395
0.97518486 -0.1040893 0.15551649
0.9826079 -0.10208646 0.15280376
0.99148667 -0.099304408 0.14980374
0.9095788 -0.094569497 0.14912845
0.91494858 -0.094948649 0.15556605
0.91878682 -0.094617687 0.15998161
0.97976643 -0.097708814 0.16005577
0.9861868 -0.096797921 0.15690158
0.99385941 -0.094049215 0.15449636
1.0025128 -0.091629252 0.15167721
1.0113753 -0.088960737 0.14923958
0.91154885 -0.086477824 0.15026633
0.91583788 -0.084536254 0.15509398
0.91937983 -0.083769321 0.15980068
0.99791956 -0.088401176 0.15848845
1.0059482 -0.086158313 0.15606497
1.0150088 -0.083495446 0.15360285
1.0248787 -0.081074104 0.15098971
0.91204447 -0.077317238 0.14944069
0.91651291 -0.074384309 0.15414181
0.92004985 -0.07446862 0.158758
1.0162203 -0.078481808 0.15858571
1.0258768 -0.075628266 0.15648003
0.91383499 -0.066848777 0.14818825
0.91764361 -0.064944133 0.15256369
0.92175293 -0.064500675 0.15696514
0.92572415 -0.059822936 0.16146177
0.92064023 -0.057871342 0.15272622
0.92371207 -0.055199675 0.15646294
0.92631662 -0.054894634 0.16111523
0.92275149 -0.051902335 0.15152159
0.92683649 -0.047236539 0.15585187
0.93233597 -0.042052936 0.15490913
0.94215149 -0.037375979 0.14997564
0.92749733 -0.046998031 0.15323535
0.93170935 -0.041316893 0.15730675
0.93633115 -0.038007822 0.15617481
0.94287848 -0.033822399 0.15464719
0.95273918 -0.030321606 0.1515055
0.96022505 -0.026732506 0.15066375
0.94247001 -0.031569146 0.15931644
0.94808245 -0.02924625 0.15734808
0.9560048 -0.025407236 0.15475762
0.96305549 -0.022611916 0.15301347
0.97081679 -0.020027759 0.1504876
0.95723534 -0.020544292 0.15897478
0.96721059 -0.017621571 0.15607508
0.97438562 -0.014191842 0.15504113
0.98286319 -0.011008221 0.15294854
0.99380809 -0.006634912 0.15039463
0.96540886 -0.013902319 0.16162841
0.97673899 -0.0098071918 0.15927705
0.98651397 -0.0065931547 0.15647921
0.9943018 -0.0033472048 0.15381858
1.0017388 -0.00024118256 0.15193994
1.0097618 0.0025443733 0.14868841
1.0379066 -0.00090642413 0.15884681
1.0458024 -0.0055700759 0.15576546
0.98965079 -0.00099884416 0.16072372
0.996369 0.001935455 0.1588157
1.0057094 0.0043750601 0.15452996
1.0143635 0.0075626015 0.15369593
1.0264449 0.008343447 0.15461676
1.0348145 0.0043777777 0.15498605
1.0410066 -0.00027330068 0.15294476
1.0081763 0.0079184528 0.15900441
1.014729 0.0091124158 0.15704693
1.0252031 0.0083177434 0.15582995
1.0315571 0.0065436056 0.15156914
0.91647792 -0.13096698 0.15617318
0.92358708 -0.12849379 0.15856367
0.91765451 -0.12494975 0.15927358
0.92461878 -0.12339541 0.1627592
0.93418014 -0.122037 0.16222669
0.94360429 -0.11979672 0.1597532
0.91363734 -0.11043132 0.15533198
0.91902071 -0.11455542 0.16203715
0.92523903 -0.11581543 0.16654253
0.93579239 -0.1154884 0.16735022
0.94527698 -0.11402317 0.16448773
0.95396143 -0.11160349 0.16159126
0.91946495 -0.10472859 0.16229948
0.92325848 -0.10515677 0.16684313
0.93042457 -0.10768653 0.17181368
0.94809026 -0.10903795 0.16873571
0.95490295 -0.10684302 0.16616295
0.96377802 -0.10315014 0.16432476
0.97291845 -0.10050633 0.16118921
0.91887897 -0.094956152 0.15967296
0.92340451 -0.094680436 0.16668788
0.92787361 -0.095220692 0.17261204
0.96011788 -0.10139757 0.1696133
0.96795964 -0.098700799 0.16680069
0.97638148 -0.094864793 0.16589272
0.98354501 -0.093703225 0.16269855
0.99189174 -0.090312235 0.16051607
0.92117369 -0.08491879 0.16034475
0.92406601 -0.084852532 0.16513932
0.92832369 -0.083999597 0.17199893
0.98682976 -0.088275284 0.16707911
0.99529374 -0.084623493 0.16522029
1.0019314 -0.082464635 0.16285366
1.0170851 -0.078234807 0.1583021
0.9209249 -0.076640256 0.15919247
0.9255746 -0.075108677 0.16475146
0.92988634 -0.073909745 0.16927077
0.99699289 -0.078876309 0.17040792
1.0059232 -0.076790638 0.16647159
1.0146763 -0.073502243 0.16461101
1.0220293 -0.071674049 0.16274127
0.92431694 -0.0616863 0.15933812
0.92693585 -0.06567663 0.16353872
0.93100655 -0.063951232 0.16773432
1.0089988 -0.072248042 0.1696554
1.0184319 -0.06851957 0.16800749
1.0264549 -0.066174939 0.16577323
0.92449272 -0.057388406 0.15753102
0.92811924 -0.054842647 0.16227563
0.93263906 -0.054281697 0.16720182
0.93538374 -0.057509303 0.1728628
1.0367165 -0.0575266 0.16843854
0.93089783 -0.047182471 0.16221274
0.93332833 -0.044802453 0.16624004
0.93521774 -0.047562867 0.17126906
1.0476073 -0.050718851 0.16867639
0.93349522 -0.040468067 0.16313629
0.93537039 -0.035810214 0.16559845
0.93887234 -0.030347725 0.16512352
0.93598545 -0.034126829 0.1643746
0.93947732 -0.029320484 0.16600674
0.94441748 -0.024898481 0.1664079
0.95185506 -0.022087365 0.16130571
0.95767939 -0.017149476 0.1622113
1.050668 -0.019788219 0.17159626
1.0571288 -0.02367313 0.16618353
0.9438796 -0.024927344 0.16825446
0.9504174 -0.019127116 0.16867036
0.95566452 -0.016361626 0.16625744
0.96296227 -0.013178213 0.16391984
0.97138166 -0.010535668 0.1613204
0.98110807 -0.0079914378 0.15785587
1.0380204 -0.010121942 0.17060453
1.0460079 -0.012943915 0.16598533
0.95459026 -0.014987989 0.17056449
0.96262455 -0.009864293 0.16910933
0.96857625 -0.0064997128 0.16814171
0.97466242 -0.0052073477 0.16600515
0.98334765 -0.0030967209 0.16178595
0.99212652 0.00045827561 0.16014788
1.0295336 -0.0011914156 0.16720594
1.035393 -0.0038469429 0.16499551
1.0419075 -0.00840241 0.16443796
0.97823626 -0.00068353856 0.1690394
0.98634589 0.002511811 0.16613214
0.9947592 0.0056502009 0.16475688
1.0054046 0.0094780028 0.16379146
1.0151825 0.0084296986 0.16533428
1.0241654 0.0040520816 0.16498865
1.0322009 0.0010172897 0.16189338
0.99006099 0.0075485129 0.17104051
0.99605554 0.0067747403 0.16728568
1.0046352 0.010204799 0.16684027
1.0155653 0.0090412321 0.16458115
1.0207738 0.0075782374 0.15987653
0.92950422 -0.11843082 0.16599669
0.93044323 -0.11815295 0.16565104
0.92192996 -0.11674124 0.16455722
0.92779827 -0.1121971 0.16877595
0.9345094 -0.11116376 0.17022358
0.94288582 -0.11079209 0.16898535
0.92828488 -0.10371862 0.17215678
0.93504941 -0.10443003 0.17453596
0.94498372 -0.10406576 0.17392792
0.95370615 -0.10164946 0.17217259
0.96341234 -0.099162541 0.16999786
0.92420238 -0.095530197 0.16635659
0.92852211 -0.094958052 0.17247711
0.93387353 -0.095434293 0.17721416
0.94272846 -0.096977226 0.17958148
0.95599598 -0.097279839 0.17594402
0.96448982 -0.094796285 0.17441539
0.97221971 -0.091909245 0.17291462
0.97981882 -0.088591203 0.17133306
0.9294132 -0.084352225 0.17218609
0.93296206 -0.08483845 0.17721708
0.93944883 -0.085056081 0.18269357
0.96851826 -0.089511216 0.17828229
0.97718859 -0.086221248 0.17682162
0.98370171 -0.084260836 0.17436153
0.99260783 -0.08109244 0.17110462
0.93113309 -0.074205704 0.1702726
0.93457043 -0.074447751 0.17524405
0.93868715 -0.074135177 0.18158761
0.98771715 -0.079526633 0.17731783
0.99579382 -0.074896351 0.1763887
1.0039495 -0.072338849 0.1728975
1.0125809 -0.068867922 0.17140214
0.9325285 -0.065341376 0.16909894
0.9364751 -0.064941287 0.17382574
0.93959469 -0.065481916 0.17892681
0.99896026 -0.069778442 0.17994446
1.0066419 -0.067065537 0.17755954
1.0147765 -0.064935736 0.17423533
1.0231715 -0.062111892 0.17239572
1.0331936 -0.058790673 0.1698273
0.9371984 -0.055292536 0.17351331
0.94077945 -0.054284342 0.17912149
1.0171453 -0.058647599 0.17998749
1.026486 -0.056009687 0.1772743
1.0346402 -0.054097541 0.17413114
1.0436463 -0.051249642 0.17231426
0.93763554 -0.045458447 0.17288126
0.94109958 -0.044368438 0.17828903
1.0384033 -0.048503421 0.17945942
1.0457745 -0.046991181 0.17643465
1.0537294 -0.042692609 0.17222632
0.93527585 -0.041046854 0.16665708
0.93896019 -0.035901643 0.1731209
0.94196123 -0.035514072 0.17761074
1.0550581 -0.035714976 0.177316
0.94098812 -0.029190296 0.17156774
0.94384217 -0.025182219 0.17579338
0.94799727 -0.019587591 0.17775047
1.0489407 -0.023220457 0.17823303
1.05415 -0.02569467 0.17412445
0.94858223 -0.018335536 0.17591523
0.95309299 -0.012830219 0.17543842
0.95919889 -0.00832632 0.1725814
1.0269523 -0.0096919611 0.17975365
1.0368782 -0.013010297 0.17609763
1.0448927 -0.016907614 0.17431241
1.0493727 -0.018360024 0.17117321
0.95258445 -0.012445449 0.17886899
0.95832819 -0.0073666535 0.17666888
0.96229911 -0.0048614037 0.17406359
0.97165316 -0.00011298784 0.17361066
0.9839775 0.0039373119 0.16894622
1.017686 -0.00079151773 0.17824422
1.024599 -0.0047889194 0.17615092
1.0329481 -0.0087040467 0.17328969
0.9615252 -0.0020618427 0.18178447
0.96785504 -0.00033924289 0.17799962
0.97500771 0.003364549 0.1766367
0.98439527 0.0071505071 0.17379843
0.99443614 0.0099528199 0.17381528
1.0060248 0.0082218442 0.17679331
1.0144113 0.0049776775 0.17470469
1.0215031 0.00025886804 0.17310564
0.98001242 0.0065930043 0.17777745
0.98788571 0.010213377 0.17768952
0.99621993 0.010902304 0.1751878
1.0046545 0.0096493205 0.17578381
1.0129261 0.0072986255 0.17091137
0.93239105 -0.10184855 0.17430894
0.93673968 -0.099636383 0.17718282
0.94285887 -0.098844796 0.17723495
0.93179882 -0.093641713 0.17571582
0.93743062 -0.093362063 0.18027273
0.94534594 -0.093755059 0.18187168
0.95381486 -0.091705844 0.18148848
0.96318817 -0.08996401 0.18036696
0.934825 -0.087644637 0.17862357
0.93794984 -0.085202858 0.18144003
0.94442332 -0.085293226 0.18557304
0.9545058 -0.085122436 0.18626192
0.96414471 -0.084907807 0.1858609
0.97350401 -0.083122455 0.18343939
0.98224628 -0.078939036 0.18187013
0.93937111 -0.07576517 0.18132164
0.9434976 -0.075373285 0.18658598
0.95051891 -0.076911919 0.19171202
0.96911943 -0.079157472 0.19024202
0.97634542 -0.077949271 0.18717355
0.98486292 -0.075285494 0.1841079
0.99343032 -0.071652181 0.18198417
0.94066322 -0.066251397 0.18022104
0.94445741 -0.065485239 0.18645075
0.94962651 -0.067385159 0.19266039
0.98797387 -0.070030548 0.18807426
0.99601215 -0.066120468 0.18669088
1.0046229 -0.06354928 0.18313538
1.0120642 -0.059645839 0.18281752
0.9430415 -0.055440433 0.18095665
0.94577372 -0.055226464 0.18452629
0.94953769 -0.055367786 0.19051893
1.0074261 -0.058025721 0.18797773
1.0156391 -0.05511184 0.1852871
1.0238336 -0.052649334 0.18268529
0.94160318 -0.04661379 0.17780899
0.94609076 -0.045438744 0.18334441
0.95023245 -0.044638991 0.18844536
0.954503 -0.04383919 0.19429047
1.0178173 -0.04918566 0.19073251
1.0257266 -0.047626082 0.18756883
1.0353487 -0.045088977 0.18565364
1.043921 -0.042071428 0.18359421
0.94225848 -0.036178805 0.17816696
0.94688755 -0.035284076 0.18324627
0.95152158 -0.034296811 0.1888539
0.95410365 -0.033408549 0.19168594
1.038635 -0.03917196 0.18953544
1.0456864 -0.035672445 0.18620028
1.0506524 -0.034301337 0.18207063
0.94643503 -0.025099369 0.17800058
0.94830966 -0.025895625 0.18233959
0.95228577 -0.024028117 0.18671182
0.95652676 -0.022258611 0.19242013
1.0249183 -0.018008903 0.19335097
1.0372704 -0.021992737 0.18707415
1.045144 -0.025459809 0.18477236
1.0496618 -0.028753495 0.18101466
0.95117152 -0.017391212 0.1825345
0.95460916 -0.014628132 0.18590933
0.95632082 -0.012190875 0.18836389
1.0186224 -0.011318368 0.18965043
1.0262921 -0.01441587 0.18644547
1.0330322 -0.016142471 0.18308635
1.0392789 -0.019703014 0.18350308
0.95348418 -0.010644246 0.18204135
0.95685685 -0.0064063366 0.18557321
0.9610455 -0.00082458719 0.18340828
1.0089961 -0.0014717559 0.1876339
1.0156118 -0.0046284585 0.18413389
1.0231252 -0.0088099297 0.18183786
1.0297984 -0.01181384 0.1800652
0.96021366 -0.0012493749 0.18489678
0.96558422 0.0034583313 0.18613748
0.97225404 0.0067083924 0.18509074
0.98473841 0.010251408 0.18313996
0.9968915 0.0086245313 0.18610455
1.0042143 0.0047810483 0.18466273
1.011834 0.0016637007 0.18119538
0.96948898 0.0064988122 0.18763596
0.976484 0.0087791523 0.18597342
0.98568493 0.010739633 0.18577088
0.9948281 0.0095538283 0.18429832
1.0012532 0.0079885516 0.18120319
0.94165921 -0.080429614 0.1842141
0.94756621 -0.082039677 0.1882946
0.95371497 -0.082033321 0.18908292
0.96298641 -0.078534864 0.19127077
0.94869745 -0.074432284 0.19088534
0.95525306 -0.074880645 0.19453619
0.96499097 -0.074705474 0.19484827
0.97366095 -0.072697937 0.1930256
0.98222119 -0.069120444 0.19242878
0.94853199 -0.065129004 0.19039512
0.95363724 -0.065515406 0.1958358
0.96469086 -0.066710897 0.20002586
0.97693628 -0.067159712 0.19695412
0.98557693 -0.064597614 0.19493118
0.99361664 -0.062460251 0.19276202
1.0008553 -0.059972338 0.19006838
0.95086771 -0.055604756 0.19134782
0.95434022 -0.055421263 0.19610603
0.96027207 -0.055028934 0.20194206
0.9880206 -0.060969677 0.19802496
0.99567276 -0.057063483 0.19678795
1.0038311 -0.05391857 0.19491592
1.0122266 -0.051466666 0.19180542
0.9505915 -0.045797598 0.18867742
0.95529097 -0.044945981 0.19468462
0.95956552 -0.044080257 0.20081627
1.0071557 -0.048337791 0.19961293
1.0160216 -0.046493709 0.19522418
1.0252361 -0.04260233 0.19374292
0.95391494 -0.034822538 0.19082405
0.95696414 -0.035377845 0.1942376
0.96098673 -0.033551376 0.19922927
1.0245839 -0.038183592 0.19762218
1.0343413 -0.035939295 0.19355801
1.0399843 -0.032697987 0.19031863
0.95336002 -0.024733806 0.18819621
0.95723575 -0.025205392 0.19316228
0.96162021 -0.024493903 0.19832774
0.96653098 -0.018993929 0.2049177
1.0214453 -0.01850893 0.19828235
1.0272638 -0.023325808 0.1965307
1.0337129 -0.026568552 0.19364093
1.0386395 -0.028083583 0.19039449
0.95845395 -0.015492982 0.19258294
0.96242744 -0.013833772 0.19745049
0.96608096 -0.013153322 0.20351598
1.0085051 -0.010756121 0.20023432
1.0154612 -0.013280601 0.19525515
1.0225425 -0.017005289 0.1937409
1.0312092 -0.020280538 0.18947914
0.95825016 -0.0068607265 0.18691346
0.9599089 -0.0056583928 0.19211189
0.96304214 -0.0037205145 0.19703551
0.96652383 -0.00085197872 0.20087193
0.99763441 0.00053859968 0.19754921
1.0056508 -0.0047745747 0.1939653
1.0117226 -0.0089141522 0.19217925
0.96207851 0.0018841567 0.19074216
0.96472758 0.0041373926 0.19546315
0.97209692 0.0075046229 0.1970555
0.98766261 0.0075048166 0.19459847
0.9942975 0.0044630873 0.19495738
1.0017895 0.00083083269 0.19210237
0.96567112 0.006110792 0.19088493
0.96879822 0.0077417158 0.19502306
0.97539502 0.0090795048 0.19378935
0.98413378 0.0095032435 0.19323477
0.99210036 0.008359557 0.18997198
0.95881903 -0.071546316 0.19648977
0.96386349 -0.070403971 0.19794346
0.95158505 -0.065475784 0.19325283
0.95841825 -0.063636877 0.19937462
0.96557432 -0.063324727 0.20243599
0.9748413 -0.062298957 0.2018586
0.98373181 -0.059649218 0.20028055
0.95934474 -0.055934045 0.20149767
0.96473187 -0.054685012 0.20492837
0.97475225 -0.056563821 0.20687363
0.9850719 -0.055151481 0.20465608
0.99387091 -0.052005343 0.20383681
1.0045052 -0.049474549 0.19961955
0.96054149 -0.04635793 0.201296
0.96431768 -0.044540931 0.20563473
0.97329557 -0.047330771 0.21225029
0.98894584 -0.051771745 0.20761047
0.99668944 -0.046892934 0.20858094
1.005322 -0.045009408 0.20513105
1.013468 -0.042064033 0.20298202
0.96138352 -0.036521386 0.19968261
0.96497697 -0.034451567 0.2041775
0.97013772 -0.036501825 0.211568
1.0101862 -0.039946601 0.20894386
1.0164407 -0.036678538 0.20616707
1.0234598 -0.033810552 0.20266968
1.0282997 -0.032240052 0.19892818
0.96307427 -0.026002252 0.19980392
0.96646178 -0.024591247 0.20379438
0.97011077 -0.025099302 0.20969872
0.97650135 -0.023209358 0.2174587
1.0163579 -0.02185897 0.20756291
1.0228935 -0.025562586 0.20305131
0.96383238 -0.017770255 0.19953094
0.96704054 -0.015447154 0.20319602
0.97152281 -0.013486372 0.20903276
0.9962247 -0.01017362 0.21158591
1.0066841 -0.013015063 0.20680767
1.0138463 -0.016301055 0.20236649
0.96293998 -0.010906156 0.19705819
0.96784616 -0.005941296 0.20322961
0.97278559 -0.0036029054 0.20791417
0.98592287 -0.0015090541 0.20861363
0.99501628 -0.0055642915 0.2051049
1.0041317 -0.0094942581 0.20216408
0.96477717 0.0036686049 0.19681287
0.96875697 0.0036173516 0.20141649
0.9749459 0.003639577 0.20476317
0.98481536 0.0023532016 0.20235874
0.99087334 -0.00038370356 0.20257053
0.97006053 0.007172294 0.19903696
0.97428989 0.0072846035 0.1998941
0.98204452 0.0064821583 0.19824599
0.96334583 -0.057195693 0.20441426
0.96859574 -0.052091137 0.20800114
0.97533542 -0.051968627 0.21008915
0.98362643 -0.049746692 0.21030013
0.99040568 -0.048818968 0.20881441
0.96261638 -0.046741109 0.20415995
0.96971124 -0.044427712 0.21093179
0.97476202 -0.044374548 0.21410078
0.98432755 -0.044130739 0.21434359
0.9937427 -0.042378768 0.21386777
1.0019895 -0.041484829 0.21150373
0.96923137 -0.036170084 0.21031618
0.97471684 -0.034143724 0.21566321
0.98206389 -0.035752151 0.21987869
0.99770105 -0.038227331 0.21674517
1.0039465 -0.035738755 0.21469998
1.0132408 -0.03302953 0.21205111
1.018165 -0.030337207 0.20875698
0.97083575 -0.026799705 0.21045263
0.97477138 -0.025016287 0.21417393
0.98134148 -0.025947526 0.22082952
0.99646896 -0.020647468 0.22051969
1.0070882 -0.023453832 0.21654133
1.0129944 -0.025232576 0.21381056
1.0189795 -0.027174385 0.20940715
0.97170991 -0.013606573 0.20789905
0.97657311 -0.015061082 0.21401533
0.98337609 -0.013781654 0.21729079
0.99531209 -0.014220932 0.21576084
1.0027611 -0.016328122 0.2136779
1.0103215 -0.018660594 0.21035844
1.0187528 -0.022340083 0.20626733
0.97128421 -0.0077046924 0.20724398
0.97749591 -0.0063856491 0.21130052
0.98431677 -0.0065319845 0.21343446
0.99395669 -0.009637828 0.21120486
0.97157419 -3.5328718e-05 0.20569496
0.97764462 -1.9579695e-05 0.20857586
0.98238528 -0.00081433315 0.20715329
0.9742859 0.0033245052 0.20497316
0.97515452 -0.039696328 0.2153966
0.98475647 -0.040405978 0.2184884
0.98974264 -0.040408768 0.21675621
0.97369152 -0.032485195 0.21446124
0.9790169 -0.033799358 0.21878359
0.98527557 -0.0336002 0.22163527
0.99379569 -0.033365011 0.22088231
1.0012641 -0.031115765 0.21882373
0.97930467 -0.025698703 0.21943162
0.98525923 -0.025074877 0.22275876
0.99362898 -0.024490032 0.22283512
1.0034803 -0.026241506 0.2195002
1.0083874 -0.027077794 0.21748154
0.98034263 -0.017568771 0.21709867
0.98633128 -0.017020723 0.21970606
0.99358743 -0.018640505 0.22035596
1.0020751 -0.019880749 0.21730773
0.9806332 -0.011117055 0.21500607
0.98750037 -0.012285074 0.2167031
0.98354584 -0.029634492 0.22247672
0.98696351 -0.025782669 0.22319154
0.99234581 -0.025965722 0.22300799
0 0 0 1 0 0 0 1 0 0 0 1 0 0 0 0 0 1172 1 0 0
