ply
format ascii 1.0
comment PCL generated
element vertex 1328
property float x
property float y
property float z
element camera 0
property float view_px
property float view_py
property float view_pz
property float x_axisx
property float x_axisy
property float x_axisz
property float y_axisx
property float y_axisy
property float y_axisz
property float z_axisx
property float z_axisy
property float z_axisz
property float focal
property float scalex
property float scaley
property float centerx
property float centery
property int viewportx
property int viewporty
property float k1
property float k2
end_header
0.85846037 0.038821798 -0.070819922
0.86452991 0.035109438 -0.075470448
0.870013 0.034001518 -0.080221817
0.85701442 0.045029052 -0.070217989
0.86328959 0.045037456 -0.076701313
0.86936319 0.048713762 -0.082112446
0.85964161 0.054770522 -0.070643105
0.86396265 0.055672634 -0.075212575
0.8696124 0.05888813 -0.08031898
0.85946798 0.05969914 -0.067411333
0.86725497 0.06421306 -0.073803268
0.87120557 0.067595832 -0.075881734
0.87054384 0.070206515 -0.072845146
0.8750475 0.073894866 -0.074914537
0.88043433 0.078138679 -0.077587515
0.87976992 0.079102971 -0.074384287
0.88394994 0.084085122 -0.074631251
0.89084864 0.089152925 -0.07739453
0.88812506 0.089611314 -0.072102696
0.89482594 0.093854427 -0.074540794
0.90317637 0.099779256 -0.076384045
0.91077304 0.10343958 -0.079744615
0.899041 0.098618597 -0.071674541
0.90682065 0.1036019 -0.074311413
0.91398865 0.1068506 -0.074876271
0.92293173 0.109589 -0.076777548
0.93170726 0.11300895 -0.071906872
0.95653749 0.11277563 -0.070786312
0.96661472 0.11111175 -0.071432449
0.90823656 0.1056153 -0.069115326
0.91672653 0.10811204 -0.073018074
0.92621171 0.11162877 -0.075100876
0.93532449 0.11453647 -0.075947136
0.94372374 0.11527406 -0.07488922
0.95461911 0.11510536 -0.074605301
0.96521789 0.11368955 -0.074626014
0.93617541 0.11476114 -0.076047018
0.94684643 0.11652587 -0.077535026
0.96188915 0.11581507 -0.078019984
0.87639356 0.0072680544 -0.058548886
0.88394564 0.0075280992 -0.061753243
0.92651474 0.00012628452 -0.063574314
0.93453705 -0.00024214521 -0.063516371
0.94144469 0.00053245213 -0.063643083
0.86843985 0.010849903 -0.059950195
0.87649137 0.009387088 -0.063633211
0.88824195 0.006876451 -0.0640807
0.89547557 0.0060706977 -0.064154118
0.90495783 0.0052954224 -0.06460271
0.91469866 0.0033646238 -0.064642124
0.92468315 0.00099942333 -0.066189557
0.93499494 8.3435742e-05 -0.066933103
0.94619149 0.0017428915 -0.064525187
0.95534527 0.0057617682 -0.064872809
0.9619571 0.0087616062 -0.065473348
0.85920852 0.020095304 -0.059364509
0.86597449 0.01717546 -0.062859289
0.87175691 0.014819412 -0.067465559
0.88339353 0.0085706972 -0.067472525
0.89329892 0.0074140951 -0.068598099
0.96046692 0.0092190169 -0.061442353
0.96679151 0.011508679 -0.065288112
0.97367233 0.015833607 -0.065426819
0.98006189 0.019847855 -0.067051664
0.85076118 0.028845312 -0.058088191
0.85699499 0.026786244 -0.063324794
0.86262882 0.025301749 -0.068060875
0.86881953 0.018832901 -0.068347573
0.97832727 0.02093832 -0.062766694
0.98513383 0.025439024 -0.064717837
0.99131632 0.027071983 -0.069638796
0.8487494 0.03775816 -0.059992149
0.85469037 0.034906015 -0.065581635
0.86003643 0.035440799 -0.07126309
0.98887575 0.031604785 -0.061195627
0.9948737 0.034088094 -0.064790703
0.99796551 0.038798396 -0.063449323
0.84890747 0.044399552 -0.06093359
0.8536939 0.045601487 -0.066885166
0.99960506 0.041113798 -0.062766857
0.84975851 0.055057839 -0.058699232
0.85462224 0.055362508 -0.064478852
0.85880226 0.058475446 -0.068062864
0.85735786 0.061196495 -0.064135805
0.86329657 0.067132324 -0.066864587
0.85926962 0.068459652 -0.059359692
0.86652327 0.073532008 -0.063733995
0.87177843 0.077446543 -0.06684953
0.86754662 0.078644104 -0.058733609
0.87610763 0.083179608 -0.063994564
0.88230211 0.087620378 -0.067201585
0.88960278 0.09330111 -0.068180494
0.99109775 0.088671893 -0.05900627
0.87928659 0.086334698 -0.063309915
0.8869614 0.092079006 -0.064513214
0.89428365 0.098075144 -0.066743731
0.90099204 0.10278663 -0.065956809
0.97070903 0.10328675 -0.060296528
0.97728968 0.10031478 -0.060910843
0.98654509 0.096579418 -0.063760251
0.89007878 0.095974058 -0.061095726
0.89746433 0.10196633 -0.061609942
0.90396959 0.10529829 -0.065350451
0.91396493 0.10898329 -0.065387741
0.923585 0.11129687 -0.064367712
0.93348646 0.11196139 -0.064097069
0.94343257 0.11084782 -0.062105291
0.95494097 0.10836916 -0.06208159
0.96558464 0.1069506 -0.063591152
0.97565317 0.10401238 -0.064404763
0.98328996 0.10159847 -0.066500932
0.90798873 0.10768136 -0.059918199
0.91687036 0.10998657 -0.063299306
0.92706865 0.11149856 -0.065355882
0.9359203 0.11230924 -0.064887285
0.94429451 0.11171374 -0.066082783
0.95345348 0.11106185 -0.06646397
0.96245891 0.10971191 -0.0675551
0.97346294 0.10881916 -0.07062199
0.86141241 0.0049540428 -0.046100803
0.86719412 0.0056854379 -0.051102549
0.87259912 0.0064353556 -0.054937005
0.8984974 0.00087436335 -0.049598318
0.90699244 0.00012513806 -0.053284299
0.9148798 -0.001021118 -0.053713325
0.92482489 -0.0012991484 -0.055343043
0.93502438 -0.00029142218 -0.054211125
0.9404586 0.00087803957 -0.057157386
0.85890722 0.0087008597 -0.050041638
0.86503822 0.0075353887 -0.053444132
0.87506902 0.0048305937 -0.05449421
0.88511974 0.0054204683 -0.055428129
0.89478117 0.0040947418 -0.054747745
0.90524215 0.0017124086 -0.055537947
0.91523534 -0.00015371178 -0.056671739
0.92382115 -0.0010995178 -0.056381963
0.9354465 -0.00020853955 -0.054746725
0.94501197 0.0026686415 -0.055732645
0.95385772 0.0073972242 -0.05564148
0.96219081 0.010989198 -0.059213597
0.85021931 0.018889846 -0.049270485
0.85595763 0.016811088 -0.052392874
0.86207169 0.01324488 -0.057045978
0.87287277 0.0077101164 -0.059079904
0.88066149 0.0061003636 -0.0591015
0.95806289 0.010617352 -0.053867519
0.9649632 0.014975179 -0.054915216
0.97184706 0.0180861 -0.058708627
0.84749937 0.02562301 -0.05243963
0.85417211 0.023981161 -0.05748469
0.96878368 0.019595768 -0.051736973
0.97517395 0.024206631 -0.053962279
0.9822064 0.027025022 -0.059323788
0.82977474 0.036930017 -0.041668829
0.83948117 0.035776194 -0.050614472
0.84428537 0.035161387 -0.054889422
0.84980243 0.032546569 -0.059475936
0.97959441 0.030493984 -0.051376764
0.9844566 0.033852138 -0.053996604
0.99280864 0.039118107 -0.058297608
0.84067684 0.044068452 -0.051979158
0.84464371 0.04488622 -0.056012601
0.8484208 0.043189537 -0.060645707
0.98930055 0.041737095 -0.051989902
0.99460804 0.045351926 -0.055054702
1.001068 0.049234916 -0.058871109
0.84024113 0.051086463 -0.048628971
0.84593397 0.054046646 -0.053939525
0.84985095 0.056263562 -0.057931349
0.99738109 0.054842506 -0.052364111
1.0026329 0.054986369 -0.057357699
0.8490963 0.060763091 -0.051917624
0.85451525 0.065513782 -0.055651005
0.85931951 0.069826938 -0.058703773
0.99865359 0.06578812 -0.051527649
1.0023787 0.064945944 -0.056576595
0.85880077 0.073268451 -0.052080143
0.86406392 0.076177187 -0.056911729
0.87093699 0.082468338 -0.058504876
0.99677372 0.075734548 -0.053712148
0.86379212 0.079572625 -0.051204257
0.86867565 0.08264301 -0.053770062
0.87431133 0.086629756 -0.055971831
0.88054729 0.091614135 -0.056350075
0.97972572 0.089092702 -0.049710061
0.98689461 0.086263664 -0.052630991
0.99319255 0.084663436 -0.056987572
0.87866789 0.090401798 -0.053683009
0.8850072 0.094808936 -0.05568685
0.89144939 0.099547632 -0.05567015
0.95098925 0.10408685 -0.049232241
0.95988154 0.10238207 -0.052635387
0.96743608 0.09922877 -0.053151719
0.97579801 0.095550075 -0.053945869
0.98350966 0.092748627 -0.05726622
0.99132937 0.089852959 -0.061028715
0.88909572 0.098421626 -0.052938733
0.89574641 0.10343555 -0.053986028
0.90546697 0.10786767 -0.0557536
0.91477382 0.11065695 -0.055909745
0.92571276 0.11083058 -0.053137202
0.93480027 0.10989869 -0.054247878
0.94606888 0.10757028 -0.054862693
0.95460355 0.10546192 -0.054674082
0.96419537 0.10312026 -0.056813464
0.97104287 0.10227098 -0.059285983
0.98172075 0.097591475 -0.061225098
0.90421826 0.10683623 -0.053167135
0.91747087 0.11039762 -0.054774471
0.92498368 0.11077031 -0.054521244
0.93456966 0.11053843 -0.057768866
0.94446081 0.10885283 -0.057660449
0.95485198 0.10690998 -0.058466077
0.96442217 0.10458801 -0.059505194
0.90635693 -0.0068809986 -0.040083021
0.84989405 0.0042855809 -0.037740696
0.85622394 0.0039467923 -0.040819563
0.86320949 0.0033696806 -0.04187322
0.88842976 0.00016916162 -0.042707026
0.89609993 -0.0024338001 -0.043543164
0.90582395 -0.0037785841 -0.04558913
0.91448504 -0.0038973016 -0.044803765
0.92516947 -0.0021545126 -0.045242611
0.93356025 -0.00037332039 -0.045859542
0.83988845 0.012475315 -0.036057528
0.84735882 0.0083582224 -0.040198602
0.85553724 0.0064479299 -0.044444449
0.86502546 0.0036106401 -0.046707477
0.87483865 0.0024757499 -0.045592424
0.88394868 0.0027382248 -0.045218095
0.8930257 0.0019310123 -0.048004668
0.90724254 -0.0054785414 -0.042615805
0.93058276 -0.00080437528 -0.040702041
0.93588579 0.00038489373 -0.04515316
0.94480795 0.0046223174 -0.045584243
0.9524985 0.009203217 -0.047195725
0.8392517 0.017410569 -0.038817216
0.8464216 0.015723929 -0.043669805
0.85243982 0.012202194 -0.048230547
0.8617087 0.0060392879 -0.049401201
0.88328379 0.0040830569 -0.052313033
0.95623302 0.013561065 -0.043759264
0.96248841 0.017609 -0.04597887
0.83670259 0.024684623 -0.043145332
0.8433938 0.023442904 -0.047420543
0.84993654 0.018784253 -0.050416805
0.96079582 0.020326287 -0.038909622
0.96723247 0.023839395 -0.043188296
0.97199875 0.026271811 -0.046648707
0.82907099 0.035378367 -0.040563885
0.83377838 0.034852471 -0.045621056
0.83969826 0.030572694 -0.049787682
0.96998072 0.029367587 -0.03975331
0.97651386 0.033996843 -0.043873459
0.98212647 0.037673429 -0.047563277
0.82779104 0.040724773 -0.039625708
0.8341282 0.044315133 -0.045710072
0.83886415 0.043533694 -0.050571166
0.97872508 0.040124737 -0.040927425
0.98543745 0.045287579 -0.045167807
0.82857555 0.04932113 -0.037715301
0.83765668 0.053539541 -0.04429625
0.84192824 0.055705566 -0.047806762
0.98731428 0.055344012 -0.042410191
0.99244165 0.055030406 -0.047462828
0.99814194 0.059701215 -0.051969256
0.84081626 0.06173528 -0.040048566
0.84639728 0.063491754 -0.04515088
0.85093808 0.067707852 -0.047630534
0.98847014 0.066121817 -0.041466471
0.99296498 0.065075703 -0.046016019
0.85104394 0.071054302 -0.042360794
0.8556 0.075356036 -0.044376001
0.86153084 0.079311498 -0.048046023
0.97751349 0.08096835 -0.040110871
0.98646903 0.075865954 -0.043515041
0.99189198 0.07398998 -0.04727618
0.99693179 0.069398165 -0.050216381
0.85961652 0.080688201 -0.042493924
0.86596519 0.085059635 -0.045733821
0.87126946 0.089289948 -0.046309229
0.87894768 0.096116193 -0.043366108
0.96726257 0.089276187 -0.039468415
0.97598243 0.086861491 -0.044169888
0.98271769 0.083167374 -0.046456687
0.98891377 0.081742443 -0.050221287
0.86345774 0.086592287 -0.039293442
0.87078714 0.090287328 -0.042091954
0.87707335 0.094026454 -0.04486426
0.884067 0.098048866 -0.045480888
0.89169729 0.10225738 -0.045544211
0.93964803 0.10226732 -0.038077544
0.94759744 0.10096644 -0.041818209
0.95678031 0.096908718 -0.042325296
0.96525741 0.094440952 -0.045386195
0.97204667 0.091884956 -0.047464281
0.88154787 0.097191311 -0.040357389
0.88802332 0.10101719 -0.042829625
0.89579874 0.10453925 -0.045209687
0.90346932 0.10768204 -0.045400236
0.91496754 0.10914172 -0.044879913
0.92448801 0.10931441 -0.044054333
0.93552613 0.10689371 -0.045301706
0.94502246 0.10429826 -0.045394771
0.95333844 0.1018449 -0.046954315
0.96193206 0.099050991 -0.049117591
0.96740234 0.09652523 -0.050440367
0.89795858 0.10487615 -0.04700138
0.90653676 0.10826899 -0.04515177
0.91531545 0.10850696 -0.042199261
0.92442131 0.10884729 -0.04484871
0.93253696 0.10863358 -0.047741164
0.94280082 0.10630279 -0.049303163
0.89672542 -0.0075289542 -0.034709059
0.90357435 -0.0087105604 -0.033084396
0.83973551 0.0025657387 -0.028674945
0.84633833 0.0026482863 -0.031490453
0.852745 0.0025248167 -0.033957746
0.86576086 0.00072231621 -0.030451985
0.87588006 -0.00015499747 -0.032544352
0.88528031 -0.0024186934 -0.034505263
0.89534295 -0.0066823373 -0.035705302
0.90420049 -0.0077092247 -0.03615908
0.91552371 -0.0055262372 -0.034246217
0.92480135 -0.0022578088 -0.035945479
0.93276954 0.00054226251 -0.037225001
0.83111638 0.010644564 -0.026337916
0.83741504 0.0076180645 -0.031457685
0.84475839 0.0055480986 -0.034881499
0.85501558 0.0017018929 -0.034373607
0.86486024 0.0018757295 -0.036128297
0.87435812 0.0017098841 -0.036182147
0.88354635 3.8260863e-05 -0.038946722
0.92776036 -0.00058468606 -0.033692859
0.93583411 0.0023015321 -0.035380334
0.94413698 0.0081566479 -0.035486229
0.82987785 0.016323455 -0.02942588
0.83528006 0.015537052 -0.035138201
0.84258288 0.010485498 -0.038614165
0.85135502 0.0056008431 -0.040929075
0.85908705 0.0026211161 -0.039871965
0.94731122 0.012300358 -0.032220479
0.9540661 0.015921013 -0.036222033
0.961694 0.020190872 -0.040710237
0.82714891 0.025515579 -0.034310412
0.83296692 0.023788132 -0.039100111
0.95809257 0.021268537 -0.033511758
0.96452796 0.026288442 -0.036197521
0.97051197 0.028591476 -0.041746065
0.8200292 0.035696931 -0.030014323
0.82451361 0.035052408 -0.035808966
0.82907158 0.036812052 -0.041095801
0.96800017 0.033347096 -0.032770116
0.97281414 0.035002165 -0.037722819
0.82150584 0.043324791 -0.031700633
0.82516712 0.045649499 -0.035265919
0.82995027 0.049505465 -0.039149486
0.97247666 0.040806107 -0.032385681
0.97596961 0.044239715 -0.034836765
0.98085666 0.046717428 -0.039194129
0.82302409 0.049340606 -0.029017193
0.82821232 0.053515017 -0.032956079
0.83298939 0.056847222 -0.036604453
0.83813804 0.060751896 -0.038614709
0.97821844 0.054892682 -0.032058258
0.98344231 0.055425573 -0.037773274
0.82990164 0.058962315 -0.029214026
0.83780456 0.063547075 -0.034527089
0.8430438 0.06797985 -0.035871927
0.84967446 0.070820153 -0.041913692
0.97771662 0.065853767 -0.030930003
0.98283058 0.064200252 -0.036017999
0.84045506 0.068056144 -0.032396145
0.84615213 0.073572777 -0.033334274
0.85296309 0.078194007 -0.036774028
0.85773438 0.083261311 -0.03715929
0.96891642 0.077454023 -0.0292645
0.97527313 0.076203354 -0.034719795
0.98178041 0.073128961 -0.038469177
0.85240883 0.080180444 -0.032130312
0.85661817 0.082802817 -0.034980007
0.86270821 0.087979645 -0.036836583
0.86911124 0.09256918 -0.036915891
0.94582027 0.093895815 -0.02810102
0.95788574 0.088765003 -0.031611424
0.96436477 0.086438321 -0.033859566
0.97285348 0.082553446 -0.037716657
0.97879964 0.079493783 -0.040484011
0.86076546 0.08831875 -0.031784739
0.86691791 0.091252588 -0.035777986
0.87524533 0.096110925 -0.03650805
0.88330257 0.10023091 -0.036289476
0.89795065 0.10573439 -0.034060352
0.90970927 0.10539087 -0.029393464
0.91894162 0.10468964 -0.030875303
0.92465103 0.10235257 -0.029271476
0.9360528 0.10015483 -0.031880084
0.94625264 0.097116821 -0.034156293
0.95389318 0.093806602 -0.035475478
0.9607724 0.092653491 -0.039279263
0.87083507 0.095336638 -0.029418889
0.87512761 0.095954403 -0.035433587
0.88728654 0.10254853 -0.032732591
0.89480561 0.10507057 -0.035667401
0.9059779 0.10638516 -0.034057099
0.91591442 0.10619063 -0.034700647
0.92589647 0.1051471 -0.035099331
0.93394679 0.10387615 -0.036798269
0.93996662 0.10022631 -0.035219297
0.94989008 0.096769452 -0.037421923
0.89143151 0.10297203 -0.038501989
0.89566302 0.10474665 -0.03356741
0.90380889 0.1065222 -0.036012556
0.91240019 0.10688206 -0.03710397
0.92589432 0.10509676 -0.036595009
0.94123614 0.10312381 -0.042147432
0.82964122 -0.0030685009 -0.013687744
0.83355314 -0.0004194105 -0.017444754
0.89694238 -0.009521571 -0.026040692
0.82954133 0.00075083826 -0.018181896
0.83656943 0.00059174863 -0.022254545
0.8461867 0.0012022596 -0.025347469
0.85387135 4.806307e-05 -0.020151354
0.86555159 -0.0011332614 -0.022523053
0.87522316 -0.0026746008 -0.025157241
0.88455403 -0.0065708687 -0.026056429
0.89417809 -0.009156106 -0.026060555
0.90602255 -0.0087188166 -0.02394427
0.9156152 -0.0042202645 -0.024821781
0.92326689 -0.0014153045 -0.026910806
0.92965221 0.0020757832 -0.025095217
0.82150328 0.011970348 -0.017810341
0.82829118 0.0076059634 -0.021134887
0.83344203 0.00630617 -0.026858881
0.84394866 0.001336826 -0.027001947
0.85516274 0.00065438135 -0.026336173
0.86476707 0.00051268621 -0.027580978
0.87029982 -0.00063163135 -0.027852301
0.92793959 0.0016555379 -0.023777904
0.93516695 0.005957271 -0.025164168
0.93962812 0.0070467093 -0.030406786
0.81461668 0.017193563 -0.014650005
0.82039845 0.017333155 -0.020303251
0.8260259 0.015790448 -0.025394328
0.8305409 0.01307193 -0.02890892
0.84042227 0.0048744455 -0.030882411
0.93910223 0.010564704 -0.022489417
0.9453814 0.014697863 -0.025435127
0.95123804 0.019246444 -0.027232789
0.81233692 0.025952123 -0.017704163
0.81664878 0.025944129 -0.022330862
0.82295901 0.023647035 -0.028691242
0.94778019 0.020678941 -0.020508831
0.95478284 0.024372462 -0.025197349
0.96122503 0.029032674 -0.027960334
0.81136233 0.034398142 -0.019349299
0.81637096 0.034485053 -0.02585963
0.8198629 0.037319306 -0.030787565
0.95960939 0.03390542 -0.021868277
0.9636687 0.035380315 -0.025575966
0.97040248 0.039817985 -0.030470274
0.81211078 0.041777208 -0.019269798
0.81621504 0.043635279 -0.024637509
0.8210023 0.047642086 -0.028444322
0.96629965 0.043808818 -0.022669708
0.97112089 0.046623562 -0.026646581
0.81825328 0.051097881 -0.021768181
0.8238889 0.055316806 -0.025579263
0.8299076 0.058444582 -0.026449353
0.96950108 0.05464486 -0.022192637
0.97325253 0.055788971 -0.026205953
0.82887852 0.062517986 -0.024049619
0.83377343 0.064870879 -0.026129054
0.84079409 0.069694109 -0.027814269
0.96864551 0.066508166 -0.021674532
0.97366399 0.064899616 -0.027016772
0.83433658 0.07032264 -0.020237884
0.83843046 0.072104499 -0.02428131
0.84421045 0.076499246 -0.026232336
0.84945238 0.080890976 -0.026489427
0.9579494 0.078635946 -0.020629561
0.96533537 0.075421937 -0.024244634
0.97058213 0.075137705 -0.030044086
0.84397632 0.07931596 -0.019938473
0.8501088 0.081955381 -0.024117805
0.85435528 0.08465834 -0.026660359
0.86115187 0.090836525 -0.027424315
0.93794858 0.091447577 -0.019074976
0.94740772 0.088660143 -0.022199856
0.95432675 0.085483745 -0.025518533
0.96317923 0.081313334 -0.028831577
0.8592878 0.090330295 -0.022211835
0.86548752 0.093910433 -0.025185809
0.87362802 0.098273031 -0.0271306
0.88324988 0.10219957 -0.024601962
0.8938781 0.10443304 -0.027477926
0.90784597 0.1019874 -0.020628527
0.91606396 0.1005706 -0.022555621
0.92654389 0.09887135 -0.024011418
0.93586189 0.095649555 -0.023945328
0.94234681 0.094216183 -0.025962742
0.95068824 0.09151037 -0.029009836
0.95980805 0.08807072 -0.032238286
0.86708242 0.094986856 -0.022092052
0.87872273 0.099744797 -0.024690032
0.88550001 0.10294042 -0.026104035
0.89501435 0.10397805 -0.025100023
0.90458256 0.10440931 -0.025664384
0.91484058 0.1022798 -0.025565661
0.92261845 0.10099459 -0.025443682
0.93133759 0.10002937 -0.028536316
0.9381758 0.096830159 -0.027815141
0.88866651 0.10295563 -0.024644831
0.89836657 0.10418562 -0.026172195
0.90564734 0.10410671 -0.02703221
0.91793031 0.10433112 -0.031488594
0.82160383 -0.0034338469 -0.0069949981
0.82703668 -0.0034020022 -0.0097405501
0.87653333 -0.0089851525 -0.012378216
0.88518101 -0.0099031031 -0.012807808
0.89353955 -0.010262116 -0.014805319
0.90181255 -0.0085385609 -0.014831089
0.82055289 0.00048063905 -0.0079623712
0.82619095 -0.0014119435 -0.012718576
0.83313483 -0.0023469317 -0.011628714
0.8451066 0.00078785676 -0.011156887
0.85604477 -0.0020060083 -0.012827982
0.86523324 -0.0048661749 -0.01512178
0.87411672 -0.0074990536 -0.015957715
0.88522631 -0.0095705986 -0.015217387
0.89568329 -0.010034346 -0.016420906
0.90539223 -0.0075738798 -0.015048523
0.91455507 -0.0030675214 -0.015230442
0.92190051 5.3623949e-05 -0.01923319
0.8130008 0.010130441 -0.0062683458
0.81973547 0.0073704473 -0.010758041
0.82296056 0.0057212221 -0.01528504
0.83462024 0.00075773563 -0.015581685
0.84530085 0.0014534085 -0.01492875
0.85486311 1.8881552e-05 -0.018542718
0.91967916 0.0015475642 -0.011127561
0.9266026 0.004680519 -0.015210267
0.93285942 0.0080979746 -0.017847452
0.81041324 0.017962309 -0.0093052499
0.81591529 0.015401951 -0.01519279
0.82064307 0.01235499 -0.016547017
0.82722539 0.012738704 -0.022595998
0.93014544 0.009486543 -0.011825136
0.9368996 0.014507148 -0.013921401
0.94363129 0.01826139 -0.01785202
0.80515265 0.024249705 -0.0065326756
0.80788177 0.026495023 -0.012429787
0.81242913 0.023412883 -0.017042773
0.93951064 0.019322874 -0.010908315
0.94596475 0.023625735 -0.014381976
0.95235044 0.027849896 -0.018247752
0.80282211 0.033763587 -0.0079691261
0.80755544 0.034850791 -0.014264406
0.81088191 0.034379929 -0.018775992
0.95027047 0.03359757 -0.01040986
0.95452541 0.034424007 -0.014590106
0.96050352 0.036823224 -0.020475373
0.80447328 0.039996736 -0.0089569902
0.80821925 0.044155143 -0.012271592
0.81242722 0.046192486 -0.017188447
0.85323644 0.048420236 -0.011662439
0.9567908 0.043930419 -0.011745779
0.96317369 0.045326728 -0.018281803
0.81158221 0.052091919 -0.010381901
0.81632447 0.053908482 -0.014088189
0.82389885 0.05750576 -0.01594663
0.95997381 0.055850215 -0.010130038
0.96412021 0.05445984 -0.015474015
0.96986878 0.059184067 -0.022179117
0.81994569 0.060441852 -0.0098573025
0.82563174 0.063355878 -0.013596193
0.83336484 0.065939225 -0.016269393
0.95914727 0.067610204 -0.010336604
0.96411002 0.064875878 -0.015109912
0.97008532 0.063626297 -0.022695825
0.82910961 0.069483519 -0.012703387
0.83632767 0.074209101 -0.012862136
0.84254068 0.076978706 -0.016931491
0.94030064 0.081659235 -0.0082617505
0.9480443 0.07852117 -0.010701272
0.95577151 0.075443648 -0.014227401
0.96208137 0.073296674 -0.019332681
0.83815712 0.078732468 -0.012642374
0.84620506 0.083436981 -0.015929634
0.85209483 0.087806046 -0.015401904
0.85948402 0.092347704 -0.017447058
0.92081916 0.093744233 -0.010143457
0.92819262 0.090739205 -0.010616673
0.93669599 0.088082582 -0.012896973
0.94514412 0.083720505 -0.014663666
0.9522475 0.081444331 -0.018988634
0.85261649 0.08932443 -0.0097087193
0.85735041 0.091400519 -0.014432141
0.86464703 0.095873848 -0.01458658
0.87363487 0.1001752 -0.015342293
0.88400257 0.10227431 -0.014607858
0.89566451 0.10237718 -0.013758023
0.90496176 0.099792577 -0.012692994
0.91612172 0.09697406 -0.014331695
0.92515439 0.094976619 -0.0155827
0.93226051 0.093252204 -0.017159903
0.93995053 0.088241212 -0.016262511
0.86858332 0.097093612 -0.015263847
0.87727737 0.10059465 -0.01479717
0.88420498 0.10214834 -0.015125426
0.89301902 0.10292552 -0.014929692
0.90390515 0.10173497 -0.018414877
0.91184986 0.099808767 -0.018912159
0.92134362 0.098821908 -0.021516206
0.93362951 0.094619364 -0.020644113
0.89062703 0.10286544 -0.018939015
0.81310928 -0.0037478479 -0.00014307274
0.81738853 -0.0023796619 -0.002194891
0.82277548 -0.0023324802 -0.0042336145
0.85527635 -0.0082245031 -0.00079548359
0.86588705 -0.010284406 -0.0027959249
0.87534744 -0.010931703 -0.0036169135
0.88455242 -0.011166395 -0.004203056
0.89285147 -0.0099218935 -0.0050202231
0.89988822 -0.0079242531 -0.0047433018
0.80873489 0.001665188 0.0021328272
0.81289333 0.00088563917 -0.00088134222
0.8160581 -0.0017701488 -0.002811874
0.82514399 -0.0028175069 -0.0068584476
0.83682817 -0.0015128643 -0.0032335888
0.84694105 -0.0016279526 -0.0038521087
0.85498959 -0.0042555989 -0.0051836707
0.86404055 -0.008103149 -0.00700022
0.87484854 -0.010248803 -0.006372456
0.88524729 -0.011048409 -0.0059543396
0.89652628 -0.0089943539 -0.0043645212
0.90539181 -0.0055914 -0.0048716809
0.91414249 -0.00077402045 -0.0070534172
0.80767381 0.0092870547 0.00096627878
0.81129807 0.0073876493 -0.0023989347
0.81247151 0.0034736008 -0.0041287765
0.82572603 -0.00084547803 -0.0048280936
0.83458579 -0.0007948305 -0.0051832078
0.84229469 0.0018200462 -0.0063258777
0.91659188 0.0021303752 -0.0043169521
0.92355531 0.0063264472 -0.0074433964
0.93025434 0.011074053 -0.0095996913
0.80489898 0.017843155 -0.00071631576
0.80809683 0.016060337 -0.0038806014
0.81099087 0.01162791 -0.0045852768
0.82019317 0.006791973 -0.01210137
0.92079824 0.0086366851 0.00095002807
0.92756492 0.012582085 -0.0032099739
0.93263054 0.015522747 -0.0068554464
0.93822348 0.020274313 -0.0081399418
0.79873842 0.029531159 0.00056778349
0.80135489 0.027060825 -0.0024000648
0.80400795 0.024771668 -0.006566701
0.80851978 0.02026204 -0.0078683235
0.84907514 0.026862103 -0.00091017841
0.84858239 0.025387762 -0.0055111479
0.93705606 0.023603735 -0.0027635309
0.94338578 0.027167434 -0.007456053
0.79822415 0.03516439 -9.6290212e-05
0.79982775 0.034924518 -0.002953216
0.8021118 0.034564506 -0.0064346758
0.84721953 0.035297237 -0.0022470907
0.85160983 0.035886854 -0.0079387976
0.94585919 0.035027888 -0.0043207519
0.79847705 0.039669074 0.0010001224
0.80127728 0.042318627 -0.00095437351
0.80443531 0.045494031 -0.0047318819
0.80895895 0.048750173 -0.009581292
0.84446687 0.047169153 0.0039794352
0.84654647 0.045430187 -0.0049227844
0.94809693 0.044251412 -0.0021694852
0.95317954 0.045223255 -0.0072790324
0.80387419 0.048676513 3.9692262e-05
0.80807251 0.052534383 -0.0021314553
0.81373018 0.055199102 -0.0049853255
0.82152206 0.059007488 -0.007836096
0.84509295 0.051928729 -0.0022218523
0.8494786 0.053389151 -0.0037352801
0.85394955 0.05334774 -0.0072124791
0.94924134 0.052855279 0.00019124257
0.95485121 0.054746721 -0.0047554164
0.95972019 0.059348859 -0.0094334027
0.81244957 0.05992211 0.0015441373
0.81724453 0.061963115 -0.0026831697
0.82730037 0.062584236 -0.0045965449
0.83137381 0.064297728 -0.0068341251
0.9491201 0.067667961 -0.0016838512
0.95461422 0.063768238 -0.0047941725
0.95826709 0.066287458 -0.0088526411
0.82287252 0.066685356 -0.003743767
0.82807815 0.072234794 -0.0041035139
0.83492666 0.074107699 -0.0052233315
0.84191835 0.07953544 -0.0068958513
0.92930084 0.081185192 0.00038769434
0.93762153 0.077282749 -0.0017515634
0.94579977 0.07494843 -0.0052980022
0.94909757 0.072450772 -0.0052259089
0.95556349 0.0687491 -0.0073182643
0.83229411 0.077804692 -0.0029132736
0.83690858 0.082130298 -0.0025855233
0.84416646 0.085526124 -0.0046204873
0.85257536 0.09056437 -0.0067225294
0.8618257 0.09558057 -0.010823422
0.90941179 0.094406582 -0.0032735956
0.91722548 0.089351512 -0.0016565688
0.92678183 0.086329699 -0.0044696722
0.93513519 0.083298087 -0.0066486867
0.94279402 0.080756858 -0.009919011
0.84332967 0.08719486 -0.00032045488
0.84866846 0.089463517 -0.0024293796
0.85712665 0.093866557 -0.0050282697
0.86381948 0.097028613 -0.0059850672
0.87336582 0.099703975 -0.0045832242
0.88447618 0.10074024 -0.0039724978
0.8955605 0.099519938 -0.004950807
0.90611136 0.095936351 -0.004214271
0.91392881 0.09393163 -0.0055697067
0.92321092 0.090744302 -0.0075713927
0.93155557 0.088302352 -0.010174894
0.86188334 0.095133707 -0.0075236382
0.86681783 0.097793952 -0.0019837655
0.8755815 0.10042486 -0.0079500182
0.8838129 0.1008316 -0.0056006438
0.89282066 0.100241 -0.0078451065
0.90276194 0.098568156 -0.0078154439
0.91234648 0.096712567 -0.011507729
0.80936122 -0.0012544228 0.0059621129
0.81093371 -0.0018590855 0.002688651
0.81770045 -0.0013151871 0.0015067403
0.84641331 -0.0094863428 0.0079008676
0.85596186 -0.011503298 0.0057302197
0.86566401 -0.01276967 0.005671686
0.87492609 -0.012460249 0.0046675387
0.88413113 -0.010952926 0.0044662701
0.89124084 -0.009545777 0.0021021434
0.80701953 0.0023386371 0.0044628605
0.80943286 -0.00063903688 0.0031772954
0.81660801 -0.0018929053 0.0033340356
0.82673931 0.0005801798 0.0052059968
0.83525658 -0.0010655074 0.0055171014
0.84453356 -0.0022129277 0.0047881817
0.85474402 -0.0053138938 0.0027033563
0.86453998 -0.0099441931 0.0069021503
0.8866744 -0.010226219 0.0050649145
0.89540213 -0.0072800117 0.0051426105
0.90356153 -0.0034302275 0.0040892065
0.91208363 0.0022362424 0.0031348541
0.80606753 0.010164811 0.0049012084
0.80825138 0.0073630963 0.0035864862
0.81340206 0.0027034888 0.0064524538
0.82356572 0.0012781161 0.0053322944
0.90736485 0.00027292513 0.0065012123
0.91470331 0.0055381055 0.0047027636
0.92037439 0.010468542 0.0041115037
0.80323225 0.018300207 0.0040021376
0.80565965 0.015802056 0.0066502411
0.80791396 0.011048754 0.0072064353
0.84415627 0.018461103 0.0074816258
0.84880739 0.015783178 0.010012932
0.91908896 0.012204099 0.0078249117
0.92511612 0.01591929 0.00425818
0.93047214 0.019324653 0.0011779114
0.80010414 0.026719686 0.005452069
0.80019569 0.026504848 0.0046543339
0.80171412 0.023825143 0.0063768527
0.80627382 0.019802304 0.009505935
0.84166336 0.023279784 0.01160898
0.84781581 0.024167646 0.0062013664
0.84686422 0.022462992 0.0028119762
0.92845601 0.024079651 0.0082757119
0.93292999 0.025558002 0.0039128009
0.79808229 0.034672942 0.0033069665
0.79854453 0.036035649 0.0044936538
0.79949641 0.035516672 0.0063293688
0.80425578 0.030301504 0.013017615
0.83735305 0.035847977 0.0079812584
0.84225839 0.034523904 0.001251869
0.93719882 0.033831697 0.0054123788
0.94202787 0.036948919 0.0017770898
0.7989012 0.042945296 0.006105674
0.79987383 0.043789316 0.0052590375
0.80083197 0.045553554 0.005919504
0.84045827 0.045436364 0.012748373
0.84503675 0.046380311 0.0078085908
0.93951809 0.0447204 0.0086914944
0.94359785 0.045260228 0.0037302189
0.94880712 0.048860546 -0.0016408805
0.80244827 0.049881238 0.0056035095
0.80706692 0.053726818 0.0047709746
0.81217194 0.057137299 0.0043992493
0.8380605 0.056873012 0.011033831
0.8444311 0.052126758 0.0061909282
0.85556906 0.054415993 0.0046144174
0.86031288 0.058382615 0.0072037475
0.94000286 0.055219244 0.009588833
0.9443931 0.05609268 0.0053075869
0.80533427 0.055273913 0.0091125928
0.81063086 0.060053241 0.0063404748
0.81758392 0.061998885 0.0048419205
0.82737303 0.065191261 0.0042634648
0.84694284 0.059085175 0.010755938
0.92970866 0.069575451 0.011389655
0.93770218 0.066402189 0.0077475095
0.94294792 0.06436757 0.0044282586
0.94936794 0.063879438 -0.00027211086
0.82037699 0.069691971 0.007837289
0.82629919 0.072310537 0.0058347904
0.83438128 0.076779775 0.0049034557
0.91175216 0.083138302 0.011791717
0.91774529 0.081315584 0.0088525712
0.9262718 0.077638946 0.0062168683
0.93368107 0.074332744 0.0037657039
0.94090742 0.071284309 0.001341018
0.82839388 0.078416891 0.0080980202
0.83623302 0.084207907 0.0054259752
0.84453177 0.088510655 0.0049566762
0.85195386 0.093003966 0.0038390474
0.88634878 0.094151884 0.011587126
0.8967483 0.092219993 0.0082685165
0.90684772 0.088497765 0.0077219591
0.9157058 0.084478788 0.0059612691
0.92387551 0.082048438 0.0023885116
0.9305492 0.078940943 0.0012100984
0.83955503 0.086315304 0.006707056
0.84888625 0.091666348 0.0035035857
0.85432738 0.094298117 0.0034042737
0.86538029 0.097622253 0.0066332882
0.87607807 0.098142326 0.0063637788
0.88595343 0.097226411 0.0056598326
0.89558572 0.094955042 0.0050313403
0.90556049 0.092031956 0.0025184252
0.91554064 0.087583758 0.0016041895
0.91710156 0.08904437 -0.0017671094
0.85815477 0.095873289 0.0081029404
0.86282915 0.097071789 0.0022372776
0.87571961 0.099407457 0.0010129189
0.88374102 0.098003447 0.0035757211
0.8935948 0.095964342 0.0027975221
0.90379667 0.094501548 -0.0009434988
0.86135727 -0.015196874 0.016159015
0.81329 -0.0017860569 0.007698813
0.83825397 -0.004802519 0.015113333
0.84634292 -0.011224898 0.015169579
0.85499948 -0.014282879 0.015670028
0.86514962 -0.014974414 0.015824031
0.87499487 -0.013009352 0.013785131
0.88234019 -0.010630808 0.012362671
0.81148547 -0.00075422227 0.0086427014
0.8190527 0.00065765961 0.013968313
0.82672489 -0.00036096937 0.01419613
0.83458954 -0.00099384692 0.01417575
0.84407657 -0.0025607212 0.01384692
0.85523695 -0.0083140042 0.013558188
0.88645869 -0.0084301345 0.016244484
0.89404511 -0.0046280073 0.014898323
0.90095866 -0.00087253895 0.01326476
0.81123078 0.0087528573 0.01235637
0.81515545 0.0057629053 0.014243078
0.82218969 0.0028665708 0.017130347
0.83220065 0.0046258946 0.018360741
0.8982259 -0.00030303729 0.017932875
0.90557665 0.0045503504 0.01583717
0.91174805 0.0086219907 0.013376961
0.91770411 0.010819937 0.0081458436
0.80219871 0.022007389 0.0073243356
0.80567032 0.018383984 0.010701943
0.80768716 0.016857341 0.012611927
0.81444871 0.013451978 0.017025666
0.82036078 0.012283136 0.019848166
0.83587557 0.019475341 0.018297363
0.8392722 0.018163022 0.016515473
0.84586835 0.01942124 0.019795891
0.86231101 0.013331194 0.014499039
0.90909755 0.010848338 0.019559074
0.915555 0.014647042 0.015019217
0.9220612 0.018852087 0.011293728
0.80331337 0.027489612 0.011736887
0.80584371 0.025383791 0.014024301
0.81267691 0.023552587 0.019449541
0.82622415 0.026511256 0.021677397
0.83446819 0.025885938 0.015530906
0.84304345 0.021736808 0.011532587
0.85377163 0.019087056 0.0097420719
0.91914219 0.022175035 0.017973736
0.9235608 0.025170377 0.014933989
0.80246013 0.035523884 0.012580142
0.80522901 0.034701586 0.01472952
0.81154495 0.033785436 0.020412799
0.82738328 0.034968089 0.018803872
0.83357477 0.035644408 0.015003695
0.92135853 0.029510802 0.021422252
0.92728114 0.033888761 0.017444162
0.9323141 0.035120413 0.012117333
0.80028021 0.042741574 0.0096650226
0.80178112 0.044571329 0.012094995
0.80514556 0.044940975 0.015310748
0.81105053 0.044839077 0.019781243
0.82875568 0.043330234 0.018801009
0.83379567 0.046136055 0.013406867
0.84035587 0.04725552 0.012242156
0.92918998 0.042604156 0.019913709
0.9344973 0.044749107 0.014677212
0.80326718 0.052669041 0.012182262
0.80544931 0.054885637 0.014401059
0.81210327 0.05522703 0.016451916
0.81657732 0.054238506 0.022055333
0.83760732 0.052427169 0.017884204
0.8433308 0.050452113 0.015120506
0.85562044 0.05742956 0.014937641
0.86148566 0.057148725 0.013709283
0.9294256 0.0558189 0.019958718
0.93508673 0.055179235 0.01477637
0.93936956 0.055552635 0.0097426446
0.80613267 0.058135875 0.014322349
0.8095184 0.060916822 0.01550013
0.81661505 0.063724324 0.014982513
0.82631296 0.068843208 0.010484169
0.84380525 0.052292302 0.019653074
0.9201147 0.069658987 0.019713651
0.92579252 0.066985451 0.017144235
0.93327826 0.063707322 0.01255519
0.81322902 0.065803975 0.016518462
0.82036972 0.068290815 0.016831636
0.8277787 0.073345497 0.01618042
0.83344096 0.078879632 0.012387673
0.9072684 0.080287471 0.019585736
0.91618818 0.076523602 0.016260808
0.92322683 0.072689921 0.013227184
0.93155104 0.069887862 0.0091366582
0.82195002 0.07379546 0.015339595
0.82875872 0.080865726 0.016961491
0.83475178 0.084056802 0.015946193
0.84315562 0.089457668 0.014033834
0.85187089 0.094158344 0.014204107
0.86819184 0.094975829 0.018387532
0.87746263 0.091573633 0.020670857
0.88641655 0.091110401 0.016647018
0.89703429 0.087703079 0.01638036
0.90471232 0.084565543 0.015260637
0.91224223 0.081342131 0.013583918
0.91866851 0.080491632 0.0089474861
0.83931392 0.088167377 0.017475018
0.84642756 0.09194424 0.013344056
0.85471737 0.094936334 0.015395505
0.86527467 0.095155917 0.016965641
0.87522787 0.095502809 0.014345918
0.88539124 0.092099041 0.015118596
0.89258653 0.090310119 0.013523921
0.90333074 0.087839253 0.010380604
0.85076964 0.09321443 0.015336572
0.85362577 0.095013484 0.012580299
0.86761743 0.096384369 0.01304194
0.87541169 0.09519925 0.013343473
0.88259691 0.095305145 0.009977201
0.85774606 -0.015627615 0.023028342
0.8255868 -0.0020853977 0.023937231
0.83102357 -0.0047145924 0.023707053
0.8384937 -0.0058673951 0.023921762
0.84660995 -0.009544732 0.023991445
0.85535198 -0.013874942 0.025356233
0.86521316 -0.01510497 0.024742343
0.87372202 -0.012274863 0.024844289
0.88348818 -0.0083597982 0.021306237
0.81600404 0.0034343984 0.017074902
0.82077849 0.00078685523 0.0211697
0.8278358 -0.002116137 0.022143265
0.83578992 -0.0027747506 0.025168551
0.8446902 -0.0037032594 0.025829364
0.87789345 -0.0071449326 0.028693045
0.88606721 -0.0059469496 0.02551925
0.89286405 -0.0010492221 0.024853434
0.89734846 0.0026128851 0.024202356
0.80943561 0.011638111 0.015370519
0.8145631 0.0090028355 0.017514694
0.8182168 0.0077624922 0.020604802
0.82499933 0.0058391704 0.025140218
0.83124346 0.0039190324 0.029247643
0.83805615 -0.00065325556 0.032553505
0.89179265 -0.0021359653 0.024645949
0.89520985 0.0038874603 0.026896335
0.90224069 0.007087931 0.023756616
0.80797976 0.017616469 0.015750822
0.81146801 0.016803186 0.018174877
0.81749892 0.016232572 0.02239174
0.82458276 0.016086383 0.025734235
0.83401912 0.015918506 0.027337311
0.84068406 0.01718018 0.029382724
0.85170054 0.019594753 0.026350988
0.85548776 0.020660829 0.029354978
0.90671873 0.014207883 0.025196243
0.91283125 0.018706638 0.022439294
0.80625474 0.027010247 0.015958063
0.81009704 0.025995372 0.019391177
0.81671447 0.026417254 0.022591256
0.82393038 0.02465572 0.023897951
0.83446479 0.022053136 0.021051448
0.84227073 0.018472483 0.023893079
0.87182492 0.025403583 0.040824782
0.87720293 0.028261526 0.04306832
0.9091329 0.023145538 0.029325895
0.91553742 0.025051396 0.024560926
0.92043006 0.027593862 0.021148626
0.80532289 0.034757622 0.016039709
0.80927312 0.036327709 0.019773882
0.8164441 0.03567462 0.022843393
0.82334214 0.034101468 0.023804726
0.91804838 0.03331193 0.027815741
0.92312366 0.035965201 0.023841355
0.92954391 0.039596155 0.018019641
0.80609548 0.044752233 0.01787054
0.80987644 0.045573939 0.021159578
0.81688988 0.04583272 0.022834292
0.82408172 0.045277622 0.025551688
0.8316645 0.049954735 0.023351762
0.8681047 0.049852684 0.029942384
0.87289006 0.049240127 0.027774628
0.92009729 0.043141339 0.030364132
0.92468959 0.045097884 0.025922818
0.93009126 0.046440538 0.019909762
0.80728102 0.053207595 0.019594237
0.81035084 0.054785527 0.021991527
0.81633991 0.055589851 0.024316361
0.82463145 0.052303907 0.027775211
0.83554173 0.056849293 0.025320861
0.84386629 0.053722501 0.025940768
0.85442841 0.055786334 0.024999222
0.86470211 0.054814301 0.025420392
0.86367524 0.053902987 0.034695931
0.91913992 0.055668756 0.030148083
0.92454469 0.05519658 0.02485778
0.93067056 0.053545937 0.019374693
0.80817038 0.05986936 0.019812917
0.81152773 0.062952138 0.023019167
0.81606752 0.065088511 0.024519969
0.82104939 0.064719111 0.02751112
0.84460318 0.053971145 0.032150824
0.90942764 0.070471153 0.029573891
0.91702342 0.0656633 0.026716867
0.92259145 0.063689262 0.021976221
0.92841816 0.063358881 0.017397245
0.81465274 0.068608649 0.023990264
0.81946301 0.07270439 0.024799082
0.82549214 0.075165763 0.025380705
0.8312043 0.081248596 0.023014294
0.89055777 0.082535207 0.030454338
0.89772421 0.081099212 0.027955199
0.90607709 0.075674437 0.026746688
0.91294223 0.072801054 0.022912385
0.82107872 0.075641066 0.026740404
0.82827491 0.080403075 0.026487473
0.83610094 0.083388135 0.025018888
0.84312445 0.089109734 0.024697755
0.85449421 0.092266992 0.02676136
0.86545742 0.092648268 0.026715057
0.87555742 0.089358889 0.026307141
0.88624603 0.086288944 0.026527669
0.89430475 0.084603086 0.023877565
0.90290183 0.081449501 0.02159241
0.91068143 0.077148229 0.019645985
0.83146405 0.084254019 0.028780181
0.83793378 0.087577872 0.024485156
0.84530872 0.091389745 0.024229061
0.8543601 0.093459919 0.024925712
0.86354584 0.092821926 0.025078574
0.87582386 0.091392182 0.021330612
0.88636744 0.088007592 0.021499231
0.89372993 0.086135484 0.020431636
0.85693151 0.092691235 0.025992166
0.86128652 0.094244793 0.0188406
0.85605299 -0.012741503 0.029402236
0.82640058 -0.0023519453 0.025831839
0.83071399 -0.0034694644 0.030014282
0.83988953 -0.0061170333 0.03131558
0.84847587 -0.0077038985 0.032224149
0.85615915 -0.010229275 0.033737209
0.86432236 -0.011405561 0.03485107
0.87250233 -0.010633415 0.033218071
0.82383305 0.0010774027 0.02623768
0.82955176 -0.00094879424 0.031004529
0.83739907 -0.0032618656 0.031759977
0.84460485 -0.0046717897 0.034613833
0.85171896 -0.0064916126 0.037587926
0.8676762 -0.0058363648 0.037486855
0.87489653 -0.0055933613 0.034973409
0.88304406 -0.003440382 0.033819638
0.89016044 -0.00033859909 0.030461492
0.81686062 0.0076683061 0.02178894
0.8229329 0.0069917776 0.025332503
0.82934105 0.0063531063 0.029652495
0.83555275 0.0050199963 0.034705233
0.84215212 0.005316501 0.038887851
0.84743673 0.0041187722 0.043664657
0.88630295 0.0032829035 0.035962421
0.89257205 0.0076099234 0.033123881
0.8147195 0.020253122 0.022030538
0.82104844 0.014890495 0.024685038
0.82853568 0.015140256 0.028638715
0.83569527 0.012891904 0.030907866
0.84286892 0.014109058 0.036959067
0.84925544 0.017274054 0.039540406
0.85850871 0.020832241 0.045838617
0.89537144 0.01465195 0.034108572
0.90196013 0.018102521 0.031286951
0.81457865 0.031236956 0.02305186
0.82181609 0.026679156 0.024904212
0.82778442 0.024528222 0.026179871
0.83713871 0.024928059 0.033412788
0.84942764 0.021849837 0.033655804
0.85844153 0.022332205 0.035916068
0.8606351 0.027135776 0.046338174
0.87182224 0.027533777 0.045495864
0.90465307 0.025787251 0.034647986
0.91182506 0.027221441 0.030752948
0.8151927 0.036843825 0.023897769
0.81917971 0.036825713 0.025590915
0.82452041 0.033149838 0.026477365
0.86783302 0.035387989 0.039122552
0.87155879 0.036613487 0.042724445
0.87948656 0.034464341 0.043284841
0.90850723 0.034094483 0.03783096
0.91415119 0.035335597 0.033394128
0.91900498 0.038707916 0.029675825
0.81539381 0.046981595 0.025481362
0.82088804 0.046220992 0.028042587
0.82384735 0.048121545 0.028361473
0.85725033 0.050041765 0.038511936
0.86633688 0.045473099 0.03647868
0.87410212 0.045358621 0.036382765
0.91011453 0.044599198 0.040536862
0.91567975 0.044796757 0.035408236
0.92055267 0.045363795 0.03002107
0.81386983 0.055616077 0.026743775
0.81935471 0.055482559 0.030237012
0.82637328 0.055497132 0.033178385
0.83421147 0.054633737 0.034164164
0.84458435 0.056503631 0.035464156
0.85558498 0.055255927 0.034388434
0.86187983 0.051247656 0.034390677
0.86963731 0.050573617 0.041973505
0.90952188 0.05823151 0.038387291
0.91440791 0.054075301 0.035737768
0.92057836 0.052325964 0.029734228
0.81486917 0.063253902 0.027944125
0.81857955 0.064787224 0.030935617
0.82460237 0.065272562 0.035231598
0.82954621 0.062909812 0.040161144
0.83780569 0.057281505 0.042492997
0.89838535 0.070452191 0.039301991
0.90645939 0.066183098 0.035564985
0.91347659 0.062056601 0.031868499
0.81711727 0.070783332 0.029495278
0.8204695 0.07286799 0.032435317
0.824561 0.075696714 0.034854509
0.82787859 0.076011203 0.039335873
0.87825876 0.081588469 0.037962899
0.88672847 0.079319574 0.036826942
0.89540011 0.07626152 0.035818022
0.90325296 0.072350033 0.032340918
0.90857387 0.071990289 0.028603179
0.81876498 0.074851245 0.033628114
0.82303286 0.078358211 0.033005804
0.82644367 0.081496246 0.035368618
0.83483124 0.08461193 0.035005208
0.84484833 0.087565109 0.034552481
0.85498405 0.088966146 0.036840554
0.86536366 0.088469148 0.036191337
0.87423319 0.085002877 0.036170039
0.88211465 0.083866231 0.03423563
0.89207864 0.080090009 0.032902148
0.90090036 0.078911811 0.028153811
0.83036995 0.083287239 0.035715573
0.83642954 0.087058291 0.03628714
0.84547067 0.088796876 0.035626262
0.85491216 0.091127098 0.032569464
0.86398059 0.08980827 0.032185536
0.87048483 0.088141359 0.031602576
0.88096029 0.084950477 0.031203521
0.85594362 -0.010047168 0.039228655
0.83990484 -0.0047724806 0.036614873
0.84863448 -0.0064129881 0.041082822
0.85646331 -0.0077979024 0.042537935
0.86247057 -0.0068780957 0.041634943
0.83475721 -0.0011907862 0.035370253
0.84093815 -0.0018292919 0.038597085
0.84737796 -0.0030919446 0.041892476
0.8555851 -0.0042629912 0.045672193
0.86420786 -0.0040909313 0.04460007
0.87207669 -0.001236975 0.041463982
0.88199288 -0.0021215691 0.039456513
0.83351082 0.0046595638 0.033978876
0.83955157 0.0054032342 0.038130712
0.84498906 0.0060924059 0.042514678
0.85103899 0.0042843516 0.048785627
0.86104262 0.0026575022 0.05062234
0.87596393 0.0047222408 0.044049937
0.88164657 0.0082053067 0.041942816
0.8881346 0.0087501993 0.040199738
0.83227724 0.013970549 0.031896256
0.84143525 0.012447053 0.037192255
0.84896576 0.01334819 0.04422985
0.8522715 0.015027211 0.047762323
0.8586989 0.015887961 0.052679099
0.88395929 0.017550038 0.04381948
0.88906312 0.019541703 0.040683959
0.83143681 0.025295489 0.031496938
0.84113866 0.022920053 0.037524395
0.85303551 0.021242462 0.045001004
0.85670906 0.024482157 0.046580497
0.85981798 0.027637232 0.051138259
0.88680279 0.027429843 0.047152091
0.89362514 0.027155815 0.042391278
0.8998549 0.028271517 0.039985884
0.8602221 0.036463533 0.047687571
0.86492991 0.035292055 0.043920901
0.87184006 0.035883281 0.046386011
0.89566123 0.035842579 0.04616911
0.90346587 0.035693545 0.043163173
0.90867263 0.038167942 0.040242173
0.82377404 0.049803015 0.0332537
0.83185041 0.050428793 0.04012071
0.83783334 0.046728332 0.036983024
0.85043943 0.051127147 0.045327604
0.85759181 0.046802614 0.045765117
0.86162353 0.043955386 0.04271026
0.8673538 0.042001851 0.048045456
0.89912218 0.047751322 0.049473234
0.9057712 0.045507699 0.045087989
0.91125029 0.047596678 0.039625987
0.82403123 0.056516949 0.035279997
0.83128113 0.057393894 0.040142074
0.83609211 0.056759868 0.044042405
0.8442747 0.054368764 0.04576695
0.85329598 0.053379118 0.045343589
0.85369879 0.054459084 0.042947195
0.8975988 0.059397064 0.048494328
0.90532029 0.054179389 0.04473488
0.91098034 0.052386586 0.039318874
0.82347679 0.065854706 0.036871258
0.82919455 0.065102458 0.040804442
0.83444452 0.064892545 0.046021286
0.83969492 0.063516602 0.050624877
0.84797341 0.064134285 0.056800824
0.88741058 0.067554586 0.047446787
0.89693552 0.065242805 0.045846675
0.90221947 0.064211145 0.041525234
0.90779197 0.060565781 0.038238719
0.82459903 0.07384441 0.038205512
0.82852018 0.074465342 0.042514257
0.83437312 0.076514989 0.046310455
0.83945864 0.077064246 0.050439138
0.85611033 0.080341719 0.047867317
0.86548686 0.078097552 0.046447385
0.87557471 0.076020166 0.045491021
0.8844654 0.074066229 0.045443196
0.89373583 0.070871249 0.043552864
0.89913553 0.070198022 0.039193578
0.82536322 0.079166181 0.039509956
0.82878822 0.081181824 0.041746613
0.83567405 0.08400397 0.044267934
0.84470522 0.084159836 0.045526315
0.85406649 0.08378242 0.045244079
0.86451179 0.083586477 0.045433808
0.87263924 0.082742214 0.042805512
0.88362187 0.077243648 0.043659072
0.8893097 0.07831528 0.037637431
0.82658672 0.082835071 0.041230857
0.82790917 0.083782494 0.043413833
0.83753389 0.086222813 0.042832036
0.84563881 0.087312445 0.042674895
0.85256606 0.088466868 0.040171649
0.86239123 0.086086318 0.041608099
0.85244018 -0.0045301486 0.048892941
0.85745138 -0.0055685719 0.049066655
0.86123008 -0.0045859367 0.047664896
0.86712706 -0.0038211057 0.046367243
0.84472245 -0.0024780626 0.042472806
0.84991819 -0.0010444137 0.047527567
0.85699564 -0.0022524067 0.052045166
0.86335331 0.00095206796 0.049901854
0.86756057 0.0044614146 0.049251974
0.84551263 0.0027105031 0.043598067
0.85172975 0.0067836475 0.0489159
0.85673803 0.0058173276 0.053933043
0.86451793 0.007431563 0.052711055
0.86995596 0.011054768 0.050224077
0.87804484 0.012512253 0.047795609
0.84366363 0.017662011 0.041779663
0.85208333 0.013753782 0.048260614
0.85649019 0.015362495 0.052635144
0.86442262 0.013284494 0.059018824
0.87406957 0.01927804 0.054209169
0.87936229 0.020067502 0.051144496
0.88622266 0.019337468 0.048055768
0.85492361 0.024730392 0.049064577
0.85779196 0.024248263 0.053090308
0.86169398 0.024978103 0.056628324
0.87051284 0.022946104 0.061002042
0.88223243 0.0281332 0.052454084
0.88845921 0.02883777 0.048858549
0.85659373 0.037064351 0.050309747
0.85857338 0.035129584 0.053912893
0.86071533 0.033080939 0.057451077
0.88667399 0.034705568 0.056681465
0.89087415 0.036619429 0.053606525
0.89858997 0.036771789 0.049321413
0.84340817 0.050774015 0.047118567
0.85115862 0.049381487 0.050891101
0.85539234 0.045383934 0.054469097
0.85936576 0.043111078 0.060532067
0.88928849 0.041061286 0.05843915
0.89388764 0.045001548 0.054677758
0.90043408 0.04517949 0.050967216
0.82820249 0.058642961 0.039947338
0.83443666 0.057589445 0.044765607
0.84071076 0.057986554 0.047979437
0.84679508 0.056537043 0.053947411
0.85228968 0.053414341 0.057266299
0.8577891 0.053009693 0.060550194
0.88580859 0.055579115 0.057106931
0.89493799 0.054338433 0.05336415
0.8992303 0.053323675 0.051108219
0.83320791 0.066076025 0.045753222
0.83854431 0.066451378 0.049734656
