ply
format ascii 1.0
comment PCL generated
element vertex 852
property float x
property float y
property float z
element camera 1
property float view_px
property float view_py
property float view_pz
property float x_axisx
property float x_axisy
property float x_axisz
property float y_axisx
property float y_axisy
property float y_axisz
property float z_axisx
property float z_axisy
property float z_axisz
property float focal
property float scalex
property float scaley
property float centerx
property float centery
property int viewportx
property int viewporty
property float k1
property float k2
end_header
0.93626833 -0.084712163 -0.073071241
0.94539922 -0.073827155 -0.075406708
0.94689423 -0.063182935 -0.072712362
0.95353615 -0.063669935 -0.076558962
0.94952971 -0.058815483 -0.074670501
0.92064673 -0.085859433 -0.05961765
0.92399538 -0.086349607 -0.063328162
0.93057156 -0.084748961 -0.067725271
0.93541574 -0.075231969 -0.066276364
0.93864769 -0.069850184 -0.066330075
0.94243211 -0.062389076 -0.066587932
0.94241935 -0.059424706 -0.063401587
0.9077183 -0.083644792 -0.049129046
0.91342545 -0.083020598 -0.053764805
0.9127475 -0.072357349 -0.051785219
0.92736012 -0.076402634 -0.05960973
0.90972161 -0.068284109 -0.046429727
0.90472358 -0.091166198 -0.042219251
0.89923781 -0.083304606 -0.039797887
0.90319037 -0.085022397 -0.044670511
0.90712863 -0.079822026 -0.049926445
0.89613134 -0.074540943 -0.037850816
0.89945567 -0.077655457 -0.042093962
0.90284479 -0.072004057 -0.045361482
0.90918046 -0.069747455 -0.048375227
0.90217948 -0.066509768 -0.038513131
0.90546775 -0.065803729 -0.042255688
0.91636842 -0.062007204 -0.04805249
0.90783215 -0.061888348 -0.03955812
0.91603339 -0.053635366 -0.043364238
0.91989446 -0.045982078 -0.041563306
0.92582893 -0.033412598 -0.041205373
0.93838674 -0.0058456021 -0.03986555
0.90886247 -0.10054148 -0.034457106
0.89902276 -0.093678243 -0.032893803
0.904818 -0.096516795 -0.03789987
0.89367592 -0.086058892 -0.032363657
0.97933769 -0.081102811 -0.03418513
0.89122796 -0.072877266 -0.03025029
0.89350116 -0.074335992 -0.035156403
0.89717615 -0.072549172 -0.039457571
0.89322633 -0.066894412 -0.02608058
0.89880967 -0.066423848 -0.03322646
0.90265399 -0.063365623 -0.035479136
0.90890247 -0.057383761 -0.035973702
0.90185684 -0.060639396 -0.030872222
0.90509635 -0.058955062 -0.032670476
0.91091728 -0.054410018 -0.035196751
0.91678619 -0.047267217 -0.035134144
0.91599464 -0.048789136 -0.031007571
0.91684908 -0.04543823 -0.032518841
0.92054254 -0.039708156 -0.035142634
0.92102093 -0.039346851 -0.032126889
0.9226895 -0.035629746 -0.034679152
0.92360395 -0.032260474 -0.030268718
0.92670405 -0.024653774 -0.032414187
0.93061209 -0.02037262 -0.039183058
0.93017536 -0.015699612 -0.030675458
0.93271631 -0.012538149 -0.033158477
0.93636727 -0.0062145116 -0.034215987
0.93963647 0.00073524978 -0.038090926
0.93900794 -0.00033956915 -0.032934815
0.94262093 0.0055441526 -0.030701049
0.94403273 0.0072049554 -0.028288381
1.0084676 0.033561859 -0.030300934
0.90011346 -0.099907339 -0.022865694
0.90378702 -0.10157496 -0.023519227
0.88965356 -0.089076862 -0.021367386
0.89500284 -0.094551802 -0.023383737
0.88739771 -0.08346878 -0.023243787
0.89126676 -0.087679185 -0.026377771
0.96771699 -0.080801822 -0.020651741
0.97498578 -0.08050935 -0.028763181
0.88432491 -0.072279654 -0.020816978
0.88670158 -0.075431637 -0.024542164
0.88843375 -0.073559947 -0.027108289
0.97553182 -0.076041527 -0.021028752
0.98006845 -0.073280685 -0.02188856
0.88347101 -0.068024382 -0.016495731
0.88855928 -0.064321302 -0.019482357
0.89347041 -0.06392359 -0.025259517
0.900949 -0.060289342 -0.030118285
0.89650613 -0.058664195 -0.023218453
0.90256566 -0.054160777 -0.026378619
0.90852541 -0.050699409 -0.02851126
0.89894289 -0.04924874 -0.016792221
0.90787214 -0.04558415 -0.022439236
0.91126341 -0.045758799 -0.025887463
0.91834879 -0.04099584 -0.029952768
0.89793783 -0.04420219 -0.015053009
0.90209472 -0.045213059 -0.016395679
0.91788846 -0.037612908 -0.024727797
0.9192344 -0.033478733 -0.024973786
0.89731842 -0.038904686 -0.010517497
0.92204958 -0.02762524 -0.025164319
0.92328161 -0.02450991 -0.026544088
0.92068481 -0.01703224 -0.019220395
0.9266091 -0.015596624 -0.026250731
0.9303174 -0.011364753 -0.026898695
0.92737752 -0.007550193 -0.019249067
0.93394142 -0.005081174 -0.025165798
0.93829328 -0.00017777058 -0.027595652
0.93963408 0.0017326474 -0.025895778
0.94176567 0.0055579189 -0.02378938
0.94795102 0.013054219 -0.023991225
0.95032728 0.016532907 -0.023503199
0.95563459 0.022161873 -0.020199846
0.96169317 0.021831639 -0.024495097
1.0011177 0.030574623 -0.026840609
0.99779928 0.038621884 -0.024383646
1.006653 0.036932666 -0.02814398
1.0134791 0.037449781 -0.029808801
0.99993145 0.043158155 -0.022802008
1.0096189 0.039937023 -0.027134055
1.0154101 0.043628693 -0.023317909
0.89991391 -0.10053154 -0.019552451
0.92650568 -0.10627837 -0.013661792
0.88598174 -0.091609389 -0.013123402
0.89220661 -0.09831275 -0.01309138
0.88083559 -0.08504945 -0.011414348
0.88277799 -0.085469626 -0.01442698
0.95687497 -0.081187487 -0.015413495
0.8794657 -0.073359385 -0.01333098
0.88188785 -0.075438157 -0.017802209
0.95074499 -0.077131264 -0.0082463454
0.95658267 -0.078358315 -0.012000975
0.9675622 -0.073076434 -0.012166125
0.88098139 -0.067298613 -0.011773682
0.88517696 -0.063821085 -0.015459001
0.88781929 -0.059876617 -0.016452016
0.89508563 -0.056241557 -0.020485628
0.98166335 -0.0612019 -0.011480365
0.88775277 -0.058736272 -0.011673588
0.89470273 -0.052442886 -0.016454861
0.90115541 -0.049645528 -0.020252276
0.89213556 -0.053628027 -0.010618245
0.89749491 -0.049323168 -0.015751695
0.90371203 -0.04289867 -0.015406027
0.90902191 -0.039598793 -0.019890836
0.99766809 -0.047140598 -0.01231348
0.90137196 -0.039683152 -0.0096139153
0.90227127 -0.044604827 -0.014955516
0.91145545 -0.033394806 -0.017727416
0.91680181 -0.033474237 -0.020467121
0.91189128 -0.022251494 -0.0098734619
0.9154529 -0.024399212 -0.016289128
0.91671103 -0.015744694 -0.014507052
0.9219681 -0.010907166 -0.017232554
0.91471237 -0.0095729521 -0.0079304231
0.91970587 -0.0076479372 -0.011591397
0.9283933 -0.0057302909 -0.019615483
0.92916459 -0.0022846162 -0.016718505
0.9201622 -0.0030654555 -0.0067815874
0.93490291 0.0031880194 -0.015616252
0.94036609 0.007577816 -0.018848969
0.94055325 0.013973961 -0.010984778
0.94482607 0.01559851 -0.015339641
0.94697773 0.015349666 -0.020699097
0.94993579 0.021606671 -0.012353711
0.95695269 0.024792282 -0.016429707
0.96116775 0.030667391 -0.010523606
0.96128368 0.029908475 -0.012708102
0.97703654 0.037579127 -0.013769568
1.0142665 0.046499062 -0.02007333
1.0065573 0.052561224 -0.013110518
0.8903501 -0.099936962 -0.0030759645
0.89681184 -0.10297883 -0.00052599935
0.90624928 -0.10565575 -0.0031868126
0.91574603 -0.10623678 -0.0026198297
0.92399168 -0.10378245 -0.0044774637
0.87944949 -0.089240722 -0.0045358092
0.88335699 -0.094161302 -0.0051225442
0.89189923 -0.100159 -0.0072856378
0.90112329 -0.10451872 -0.002477024
0.87689674 -0.085485555 -0.0041846386
0.88016516 -0.087806918 -0.0078687286
0.93709874 -0.08298704 -0.0046310592
0.94045883 -0.082497373 -0.0072593931
0.95837551 -0.07774663 -0.012106432
0.87578273 -0.075008675 -0.0049691093
0.87772906 -0.075571395 -0.0096708098
0.93402851 -0.081225522 0.00058667961
0.94599921 -0.075043485 -0.0037763468
0.95446038 -0.073274627 -0.0069882395
0.96277183 -0.071009897 -0.0082533825
0.87732041 -0.066483013 -0.0031818203
0.88379174 -0.060467161 -0.0084706834
0.95456785 -0.066527888 -0.0015247253
0.96479481 -0.065210715 -0.0046544881
0.97378087 -0.065703563 -0.008589698
0.88031393 -0.060578447 -0.0015205758
0.88445765 -0.057643481 -0.0038769918
0.89169419 -0.050198283 -0.0097240638
0.89526457 -0.047717921 -0.011340015
0.9583388 -0.060678564 0.001758903
0.96093792 -0.06056045 0.00029411679
0.97805363 -0.057410337 -0.0048338496
0.98253304 -0.054837495 -0.0058443379
0.89574897 -0.043283679 -0.0053212517
0.90126747 -0.040663451 -0.010644952
0.90649056 -0.037527788 -0.012184052
0.98989612 -0.043147329 -0.0021614225
0.99532616 -0.041555736 -0.0052584107
1.0004783 -0.040738989 -0.0097517082
0.90112317 -0.034639686 -0.0052833394
0.90703362 -0.032497078 -0.011236554
0.99596596 -0.037563879 -0.0027030443
1.0007739 -0.033216115 -0.0033143603
0.90456873 -0.02396445 -0.0031644648
0.9085924 -0.022926649 -0.0085742902
0.90436995 -0.017543331 0.00095175847
0.9072414 -0.017117636 -0.0028449264
0.91161299 -0.012898487 -0.0065354612
0.90831363 -0.0088551147 0.00027636136
0.91498125 -0.004599385 -0.0030041381
0.92168683 -0.003208067 -0.0088967793
0.92846316 0.0016792407 -0.011415547
0.91861224 0.0011188114 -0.00087088661
0.92482507 0.0048130453 -0.0036780708
0.93405563 0.0098490361 -0.0089907506
0.920762 0.0053821728 0.001855528
0.9309395 0.011926461 -0.0024878643
0.93484259 0.013914105 -0.0041386015
0.94068652 0.015807925 -0.0089557851
0.9399218 0.018491639 -0.0028123904
0.94838727 0.02333875 -0.0027128716
0.95303416 0.026389856 -0.0070581664
0.95947856 0.030180862 -0.0022264426
0.96841878 0.03714611 -0.001391766
0.97458261 0.042113312 -0.0048065754
0.98189944 0.05167922 -0.0021757944
1.0015975 0.05636863 -0.0071926061
0.89633691 -0.10412761 0.0061997175
0.90528351 -0.10498057 0.0053924657
0.91537464 -0.10390685 0.0044540362
0.92194951 -0.10024872 0.0034684734
0.87631601 -0.092880622 0.0053161727
0.88214552 -0.09811262 0.0031226873
0.91843933 -0.09808974 0.0097955531
0.92332268 -0.099833332 0.0030075246
0.87058926 -0.082266502 0.0064445753
0.8725248 -0.084292844 0.0038987158
0.92777497 -0.083234966 0.0072617768
0.93280798 -0.081507407 0.0018693447
0.87114835 -0.075713493 0.0089769531
0.87301338 -0.074220762 0.0043306299
0.92806524 -0.079246193 0.009602461
0.93389618 -0.076144658 0.0051488876
0.94103819 -0.070148461 0.004394412
0.87506294 -0.065054484 0.005774681
0.87664199 -0.062710978 0.0019281986
0.94007528 -0.069141679 0.0072818073
0.94530201 -0.068358302 0.0032780014
0.95358384 -0.06352257 0.0014611155
0.9629941 -0.059301879 0.00053076475
0.87943345 -0.057942096 0.0063362559
0.88189763 -0.05232498 0.008407101
0.8937881 -0.045245387 -0.0004590482
0.95899922 -0.059057567 0.0035124412
0.96449524 -0.055400707 0.0031292059
0.96872908 -0.052136932 0.003466028
0.88410103 -0.051686354 0.0065186326
0.88822687 -0.047065414 0.0077264439
0.89252901 -0.041725963 0.0042781224
0.89829373 -0.041189469 -0.0040584509
0.96805388 -0.049802259 0.0068829032
0.97547191 -0.045189377 0.0065309643
0.98436642 -0.042174913 0.0028919207
0.89199567 -0.036529493 0.010550609
0.8947379 -0.034871962 0.0074381982
0.89970285 -0.03249681 -0.00067478127
0.9793523 -0.040129554 0.0085652415
0.98520052 -0.037438173 0.006899768
0.99690151 -0.032146238 0.0027259807
0.89316958 -0.024645811 0.011181904
0.89708751 -0.024816569 0.00660499
0.90047592 -0.02448269 0.0012239688
0.99788076 -0.025422754 0.0095410096
0.89789391 -0.017336972 0.0074678035
0.90241438 -0.013060747 0.004361032
0.91374457 -0.0026099477 0.00014683169
1.0085728 -0.017806692 0.0081631625
0.90249896 -0.0080380356 0.0085774967
0.90651762 -0.0061189821 0.0059558628
0.91038847 -0.0025774143 0.0039448324
0.91662627 0.0013714466 0.00075285975
0.91258407 0.0014021646 0.0066666263
0.91525656 0.0040550712 0.0061637396
0.92266905 0.0087928791 0.0030383195
0.91831225 0.0083869118 0.0083745625
0.92532229 0.013345072 0.0055983649
0.93821079 0.020681113 0.006401828
0.93897074 0.021041324 0.0064267893
0.93033153 0.01702771 0.0077375253
0.93664551 0.019364076 0.0045331288
0.94527602 0.022847608 0.0048312913
0.95392102 0.02797956 0.0049150414
0.96012306 0.032027926 0.0060164677
0.96455896 0.035290603 0.0065072966
0.96970004 0.041231293 0.0049135671
0.97358608 0.047206018 0.0042100283
0.97692049 0.052050758 0.006677099
0.98177797 0.05536294 0.0042308657
0.98798341 0.059753604 0.0053696148
0.88136262 -0.097814597 0.015796229
0.88494509 -0.100324 0.016917689
0.89594853 -0.103316 0.014699671
0.90390247 -0.10249421 0.014276501
0.91315341 -0.0994801 0.012453903
0.86734521 -0.08781223 0.01615029
0.87108737 -0.091511175 0.012991795
0.87541085 -0.094957218 0.015434784
0.88296896 -0.09916424 0.012926485
0.89799702 -0.10066303 0.01957038
0.90518415 -0.098684207 0.019314036
0.91477209 -0.098728903 0.012788072
0.86616445 -0.085139297 0.015598782
0.86789495 -0.085791819 0.015815567
0.86898232 -0.087562099 0.015521341
0.91830194 -0.084663101 0.018820556
0.92145193 -0.082257383 0.0160405
0.86887372 -0.075155079 0.016415859
0.86958557 -0.073975347 0.015179359
0.92602408 -0.075984977 0.015564466
0.93361151 -0.070964158 0.013746238
0.87304479 -0.068859592 0.013653547
0.8735224 -0.065521047 0.015852399
0.87545329 -0.061052702 0.010110962
0.92692256 -0.072152384 0.020939657
0.93404669 -0.068977475 0.01771378
0.94127494 -0.065684766 0.015357872
0.87742919 -0.055797935 0.01596147
0.87939608 -0.053835835 0.012413821
0.88188195 -0.047985736 0.016524514
0.88479525 -0.044477254 0.013895626
0.88753557 -0.034418099 0.015861884
0.88998985 -0.033522818 0.013130875
0.97999603 -0.034377284 0.014330546
0.9829334 -0.032575015 0.012759627
0.8886233 -0.025630642 0.015674744
0.89044636 -0.024534158 0.013530483
0.98589778 -0.024869725 0.017567037
0.99252141 -0.023546977 0.015336601
0.88728237 -0.015585804 0.01725235
0.8924517 -0.013211204 0.012247511
0.98718375 -0.019181455 0.020777166
0.99859196 -0.015423373 0.018010056
1.0032411 -0.014770955 0.016130444
0.88797545 -0.0088889245 0.02166347
0.88901007 -0.0081879403 0.020135419
0.89630955 -0.0024432505 0.01778028
0.90175855 -0.002576408 0.014546125
0.91079223 0.0020591442 0.0090781022
0.98781323 -0.014806743 0.02363448
0.88992316 -0.0020005519 0.02470153
0.89818096 -0.0020811427 0.0172743
0.90559375 0.0025243394 0.01692066
0.91411507 0.0080457805 0.012010947
0.90923059 0.010129414 0.019322623
0.91664827 0.014538111 0.016864974
0.92358994 0.016724939 0.013049681
0.93355769 0.019709447 0.011003843
0.93978113 0.022829201 0.014576705
0.92611951 0.018714922 0.016822858
0.93501782 0.021299973 0.01434613
0.94469589 0.0253863 0.01380752
0.95141965 0.028816946 0.013985905
0.95810926 0.032066565 0.01212013
0.94858414 0.031752311 0.019380311
0.95726061 0.032351222 0.01165144
0.96200353 0.038436491 0.014356236
0.94568759 0.034439553 0.025507525
0.96698958 0.043194443 0.015586068
0.97055322 0.046741981 0.014031818
0.94098473 0.04136537 0.029479301
0.972736 0.052621186 0.018369358
0.9750821 0.0544146 0.015939031
0.97692364 0.059666496 0.018394118
0.98474312 0.063705377 0.014755177
0.99199694 0.066058464 0.014793049
0.88146996 -0.097799279 0.020434545
0.88443649 -0.099772342 0.022284931
0.8945027 -0.10021556 0.022137895
0.90300936 -0.098827794 0.019474145
0.87675714 -0.094416119 0.024810666
0.88436663 -0.097550586 0.025635956
0.89534366 -0.097308725 0.026877141
0.90458781 -0.094639525 0.023801608
0.91071016 -0.091809332 0.022129023
0.86622536 -0.085302435 0.017104909
0.86893469 -0.08433412 0.022393906
0.87221253 -0.085594542 0.026084619
0.89899844 -0.090263695 0.031279679
0.90711701 -0.088328861 0.028051212
0.91490251 -0.081887573 0.024913838
0.92106944 -0.078403965 0.01955824
0.87006438 -0.074818194 0.021042602
0.87314117 -0.074560225 0.025772044
0.87723649 -0.079608954 0.03220005
0.9168238 -0.077783093 0.026344774
0.92636228 -0.070459068 0.024467148
0.87360191 -0.069046989 0.022504272
0.87489277 -0.066120721 0.024977507
0.93010288 -0.068071224 0.025039146
0.93435109 -0.066023856 0.025102437
0.94415432 -0.061841253 0.025782397
0.87709177 -0.055785593 0.026370579
0.87853736 -0.051412906 0.025250984
0.94886363 -0.059055481 0.027867759
0.95389926 -0.055134833 0.027932946
0.879942 -0.046707924 0.025600133
0.88085514 -0.044438221 0.024932524
0.95753103 -0.050341554 0.029355815
0.88325298 -0.036736205 0.02562492
0.88361734 -0.034724426 0.025177453
0.88506049 -0.032708216 0.019841813
0.88394701 -0.025031403 0.024125785
0.88582778 -0.023053795 0.019036347
0.98469406 -0.023365278 0.021371357
0.98714995 -0.020566177 0.020114874
0.88591051 -0.012349325 0.0244767
0.8843345 -0.014041136 0.024496295
0.88699687 -0.011492127 0.018645046
0.9866215 -0.015647642 0.024435923
0.9919669 -0.013368451 0.022931641
0.88572419 -0.010997126 0.024639418
0.88694787 -0.0058980901 0.025888266
0.88987011 -0.0010019164 0.025826858
0.89392936 0.0051006265 0.026715688
0.98759335 -0.0066374531 0.028385999
0.99506253 -0.0049359095 0.028379193
1.0027007 -0.0068024253 0.025009342
0.89049274 -0.0010635158 0.024625774
0.89372945 0.0043044491 0.025668429
0.90202367 0.0084282001 0.022049701
0.90868229 0.0094763981 0.018365735
0.89579415 0.0098271146 0.028602963
0.89718229 0.012751666 0.028860824
0.90759122 0.015882803 0.025373915
0.91343945 0.016540995 0.021646351
0.92352253 0.019366687 0.020314939
0.93221122 0.0227725 0.020472018
0.94005769 0.02725815 0.022624923
0.89925903 0.017210729 0.033182669
0.90606201 0.019322915 0.029669097
0.91616535 0.021478152 0.027358782
0.92415333 0.022567641 0.026219305
0.93361056 0.025663832 0.023094967
0.94290894 0.030370044 0.021930875
0.94989818 0.033662941 0.019624369
0.89174598 0.023792572 0.026157556
0.92397469 0.022379708 0.029285843
0.94563478 0.035872102 0.026472589
0.95237839 0.037285239 0.022650901
0.96124637 0.040485974 0.019913005
0.94321436 0.037596609 0.030071277
0.94790781 0.039776623 0.029099934
0.95543486 0.041666687 0.024628928
0.96482468 0.047141075 0.022357298
0.9673593 0.049760167 0.02235895
0.94465917 0.041228272 0.031271122
0.95061034 0.045157485 0.031589448
0.96942925 0.055049568 0.02512978
0.97133923 0.054972466 0.022104859
0.97020072 0.060692143 0.030998569
0.97644275 0.064151086 0.026731489
0.98265815 0.066598676 0.023094552
0.99109536 0.067735337 0.022305418
0.98737061 0.067895547 0.025447957
0.88280106 -0.094763346 0.029102243
0.87969679 -0.091003753 0.029626116
0.88597268 -0.092653431 0.03264039
0.89431405 -0.091356725 0.032456338
0.87848145 -0.085074507 0.03205733
0.88292783 -0.085391507 0.035736494
0.89483535 -0.08676894 0.036955621
0.90264672 -0.084573828 0.033842579
0.87814415 -0.074507207 0.032345697
0.88260549 -0.075391896 0.037276421
0.89429724 -0.080485582 0.041137539
0.90904117 -0.079690047 0.035471879
0.91455585 -0.07774958 0.030090936
0.87829703 -0.065118201 0.033492081
0.88082051 -0.064954326 0.038032416
0.92823225 -0.065599777 0.032638062
0.93501925 -0.061520614 0.035325456
0.94050837 -0.06167819 0.029642863
0.87871802 -0.054626737 0.033743445
0.87906951 -0.055139113 0.036925919
0.93809587 -0.058008898 0.037897304
0.94434524 -0.055852856 0.03550731
0.95378715 -0.051771853 0.032302149
0.87937659 -0.046786506 0.035691839
0.87936956 -0.045073826 0.033269089
0.94609153 -0.050732985 0.039733138
0.95609164 -0.047414683 0.034287985
0.96236789 -0.042813428 0.033675712
0.88047558 -0.037451182 0.036260549
0.88142395 -0.032969646 0.036086496
0.96533376 -0.036826298 0.039167449
0.88345003 -0.026332153 0.033152081
0.8836289 -0.024567146 0.035515901
0.88400674 -0.019972954 0.031117475
0.8851465 -0.014299141 0.034155127
0.88808167 -0.0068026897 0.035010368
0.88880706 -0.0017253193 0.035222612
0.97782689 -0.0051161381 0.034963846
0.99388623 -0.00248196 0.030994901
0.8915807 0.001643976 0.036792815
0.89321208 0.007393389 0.034781463
0.98656619 -0.00062146044 0.035570696
0.8966592 0.0095625464 0.031242112
0.89658511 0.01389823 0.035081886
0.90192306 0.018764183 0.03472976
0.909657 0.022502048 0.033259351
0.90104163 0.018118309 0.033621188
0.9049744 0.020747758 0.033663064
0.91517305 0.025017241 0.035562426
0.92378849 0.02609081 0.03376003
0.9326492 0.030297332 0.031089613
0.93795937 0.031329896 0.02692396
0.89489722 0.022530345 0.029285196
0.92860848 0.029300231 0.035599507
0.93545562 0.034955367 0.035043515
0.94265211 0.038762819 0.031286012
0.94849169 0.041836563 0.029755246
0.95591205 0.044078719 0.025983879
0.94395703 0.044202428 0.039052539
0.95378506 0.048344236 0.032593254
0.96420395 0.051624864 0.028275443
0.9474535 0.047525413 0.040378906
0.95904016 0.051698949 0.034414083
0.96344596 0.054921571 0.033973802
0.95968378 0.05536158 0.0399535
0.96716696 0.06197793 0.037830461
0.97586918 0.066044115 0.0346248
0.98279172 0.066610016 0.035311513
0.88367093 -0.092589065 0.033817869
0.88791549 -0.080776513 0.039294057
0.89618695 -0.080182463 0.041151907
0.9006719 -0.079647616 0.039885368
0.88832074 -0.072249733 0.042235982
0.89431441 -0.075095654 0.0448143
0.90411901 -0.073447578 0.045800269
0.88108647 -0.060294878 0.039994959
0.88526964 -0.065260001 0.04451276
0.89167285 -0.06781362 0.0493127
0.90508527 -0.070079803 0.049451977
0.88051355 -0.054395411 0.041487418
0.88261133 -0.056374773 0.045267716
0.88769597 -0.060601186 0.050709169
0.92981535 -0.055829667 0.047139645
0.93628258 -0.054571535 0.042877581
0.94330901 -0.052713323 0.039726213
0.88091004 -0.04445095 0.044425573
0.88102198 -0.045395061 0.045391746
0.93825579 -0.046982054 0.049489703
0.9447729 -0.044062033 0.045949288
0.95148522 -0.042107824 0.042062141
0.8811481 -0.035784584 0.04390331
0.88189995 -0.033065099 0.045896277
0.94630265 -0.039476067 0.049016934
0.95516461 -0.035701029 0.044973671
0.96408689 -0.03201456 0.043727379
0.97283196 -0.031078709 0.041377466
0.97640568 -0.031708866 0.03897626
0.88434595 -0.025874067 0.044376738
0.88684696 -0.023185996 0.051142566
0.95818782 -0.029677091 0.048766822
0.96694899 -0.026319748 0.047418747
0.9714309 -0.026823074 0.044300247
0.88792318 -0.015844088 0.04392387
0.89049834 -0.011778671 0.047434028
0.89057857 -0.0070525231 0.040767398
0.89304721 -0.0045231208 0.045770027
0.89425075 0.0023081582 0.041669428
0.8954789 0.0051378328 0.045000866
0.89880669 0.011082367 0.047246505
0.89932626 0.01166238 0.044382125
0.9023661 0.017030345 0.044108171
0.90920228 0.021733055 0.045443326
0.90776271 0.020817854 0.044072766
0.91426092 0.024289802 0.045635648
0.92276525 0.029196123 0.043097641
0.92802376 0.032756418 0.04606539
0.93439054 0.037135109 0.04372165
0.94191289 0.042851243 0.040191051
0.94709826 0.045205157 0.036428466
0.93207705 0.036969393 0.049302571
0.9384799 0.041299004 0.048109349
0.94593275 0.047988273 0.043451034
0.95064896 0.049970772 0.039380599
0.94166547 0.044447873 0.048401441
0.9489615 0.050939936 0.047294971
0.95395499 0.055144072 0.045093767
0.95817906 0.060346726 0.046413653
0.96651435 0.064640649 0.045736417
0.97458738 0.065429255 0.043663386
0.98053157 0.063481987 0.046481859
0.89851356 -0.070501901 0.049476277
0.88963735 -0.060703278 0.052546792
0.89587438 -0.064084493 0.054703526
0.90511072 -0.065191843 0.055543359
0.91335523 -0.063190892 0.053934921
0.9204731 -0.059308022 0.052636385
0.88628417 -0.053208619 0.054171432
0.89247131 -0.056162864 0.058442649
0.90621388 -0.05916046 0.061367825
0.91606438 -0.058943599 0.057079252
0.92538345 -0.053739004 0.055340525
0.88268757 -0.041812252 0.050204627
0.88510215 -0.044865415 0.054840799
0.88874054 -0.042377084 0.061294865
0.92821097 -0.046882659 0.059941836
0.93265665 -0.045664031 0.056724563
0.88332266 -0.037853137 0.050388843
0.88605249 -0.035261493 0.055237658
0.88763565 -0.036682941 0.060362119
0.94032592 -0.040697884 0.053971745
0.945907 -0.034540437 0.054536637
0.95221269 -0.031759493 0.051107999
0.88818794 -0.025752645 0.055345781
0.88878047 -0.020586811 0.052646682
0.94927394 -0.028653104 0.058156423
0.95634425 -0.025028694 0.054832242
0.96369022 -0.022370491 0.051260035
0.89124238 -0.01406989 0.053010926
0.89176613 -0.013542847 0.054859743
0.96402574 -0.018913316 0.052899305
0.8947981 -0.0047944435 0.054567538
0.89744592 0.0035168808 0.054978859
0.90107083 0.0081484439 0.057643894
0.90010303 0.0095709795 0.05257652
0.90481651 0.014207108 0.055549875
0.91115528 0.019858662 0.057135679
0.9083147 0.017707031 0.053302459
0.91587758 0.024450356 0.054964505
0.9206987 0.029714916 0.053374376
0.92678797 0.034582827 0.054479271
0.93072462 0.039303437 0.056386273
0.93906021 0.049554806 0.058147553
0.93607873 0.043935947 0.054302286
0.94092733 0.049915265 0.055990804
0.94131392 0.049693812 0.05649025
0.94622952 0.053976726 0.055003941
0.9522621 0.058613107 0.050624918
0.94933289 0.057319131 0.0591048
0.9565028 0.061818369 0.054524973
0.96347106 0.064213924 0.054868616
0.97023976 0.064343654 0.051664129
0.89750588 -0.059309967 0.059320439
0.9062978 -0.060569946 0.059918854
0.91267693 -0.058997061 0.058805842
0.89103794 -0.052908469 0.058846168
0.89619535 -0.053596925 0.061667077
0.90518475 -0.054601364 0.064461052
0.914092 -0.053465839 0.063578866
0.92177773 -0.051018283 0.060477067
0.88919055 -0.043200329 0.060673527
0.89487469 -0.04465292 0.065182336
0.90377355 -0.045812923 0.068144634
0.91462386 -0.046447542 0.068070978
0.92455399 -0.045356438 0.064332224
0.93220842 -0.041745976 0.061678573
0.88907558 -0.032882601 0.063200161
0.8913731 -0.036914688 0.067438424
0.90026343 -0.042407911 0.070549078
0.91538787 -0.04123228 0.07157205
0.92889994 -0.039771963 0.066879384
0.93515289 -0.034821816 0.06638746
0.93921804 -0.03572176 0.061157633
0.89107239 -0.026027253 0.064211175
0.88792062 -0.025399944 0.067793593
0.94480771 -0.024946483 0.06670364
0.95339394 -0.021658896 0.061061259
0.95968312 -0.019017156 0.058486331
0.89240193 -0.019384835 0.061666895
0.89416444 -0.013630202 0.066771798
0.89695722 -0.0063289595 0.065020211
0.90008569 -0.0027875344 0.068146311
0.90094364 0.0022222516 0.064133883
0.90304601 0.0056450013 0.065811992
0.90775853 0.010828095 0.068243265
0.90688342 0.012641374 0.064046003
0.91259277 0.018863417 0.066365883
0.91171128 0.018835617 0.062820949
0.9167636 0.023888187 0.064248838
0.92010462 0.02911577 0.063193485
0.92540842 0.034546439 0.066077217
0.92933851 0.039110899 0.062019188
0.93562269 0.046246182 0.059994463
0.93177962 0.041576993 0.066760018
0.93292069 0.043031361 0.064648904
0.93482971 0.044642117 0.065915376
0.94011182 0.050706163 0.065719105
0.94536757 0.0548038 0.064484656
0.95293421 0.058687441 0.066115327
0.96656716 0.059328094 0.068428174
0.94984764 0.057573162 0.0642839
0.95617878 0.060772713 0.064317942
0.96319419 0.062848076 0.061850179
0.90268195 -0.048119236 0.067042418
0.89874935 -0.042713936 0.068426482
0.9053784 -0.042076848 0.070678905
0.91308987 -0.043176867 0.070226707
0.92052948 -0.042396151 0.069236122
0.92924625 -0.040749989 0.065514222
0.89076525 -0.023057202 0.071696505
0.89654797 -0.032419223 0.072354466
0.90477449 -0.034996122 0.073410749
0.91534466 -0.035519946 0.075565211
0.92484963 -0.034168031 0.074023329
0.93181545 -0.030047175 0.07351134
0.89456224 -0.028681979 0.078079365
0.8929196 -0.025493721 0.075647086
0.90444577 -0.025213571 0.077410743
0.91501248 -0.027831571 0.07905066
0.92516392 -0.026972707 0.078807272
0.93592471 -0.024113514 0.075871237
0.94226909 -0.025156653 0.069223039
0.89533579 -0.025583366 0.079223536
0.89745921 -0.017275715 0.073732078
0.90210861 -0.013838851 0.080025308
0.9124366 -0.015427051 0.082423635
0.92975712 -0.01895982 0.081732988
0.93608755 -0.016294423 0.081142299
0.94117731 -0.012872389 0.080297075
0.9012748 -0.0023864377 0.069625422
0.90494102 -0.0053861924 0.076140963
0.91187847 -0.0049762023 0.081413567
0.94927919 -0.0022393095 0.081197888
0.95257753 -0.00050250749 0.079502001
0.90740132 0.0038885304 0.07279437
0.91367775 0.0056990655 0.078904592
0.92053461 0.0082320049 0.082688846
0.91062254 0.012269286 0.071346179
0.9153617 0.015003842 0.074360676
0.92192751 0.017564842 0.079235077
0.97227013 0.018125651 0.076450333
0.91923684 0.022581831 0.072909161
0.92348784 0.02573945 0.07607469
0.93140978 0.028378788 0.082786463
0.96811467 0.020316539 0.081960432
0.97744787 0.021653557 0.073890388
0.98377764 0.024953 0.072905086
0.92325705 0.029588673 0.072215244
0.92703104 0.032723263 0.075390659
0.93101406 0.037463218 0.078133918
0.98110628 0.037962314 0.080753259
0.98266751 0.039044783 0.079771958
0.93163234 0.04039412 0.072706215
0.93535918 0.044595059 0.074781939
0.94221318 0.049947143 0.080156751
0.98551369 0.042864934 0.075850867
0.93883228 0.049339157 0.073280372
0.94535321 0.054334823 0.074188128
0.95438516 0.056533996 0.076622307
0.96525735 0.055707261 0.075530775
0.97244012 0.054583497 0.07536339
0.95057672 0.056520663 0.073121443
0.95627564 0.05868895 0.072513513
0.87987155 -0.032140419 0.087331332
0.88312334 -0.027474023 0.082102939
0.89307398 -0.025922792 0.074644729
0.90661156 -0.028656799 0.076041549
0.91171378 -0.030202534 0.077364184
0.87961274 -0.025489829 0.089605615
0.885427 -0.023799863 0.084782228
0.89056259 -0.022206759 0.077766553
0.90468168 -0.024531521 0.076872163
0.91584647 -0.023135493 0.080256812
0.92457289 -0.022809459 0.080498874
0.93011659 -0.023661392 0.078816473
0.89002639 -0.02161577 0.08642257
0.89373225 -0.017220289 0.079510972
0.90624303 -0.0171274 0.079805695
0.91599333 -0.014265497 0.083509408
0.92522752 -0.016132593 0.08407671
0.93369597 -0.014328781 0.08343453
0.90962982 -0.0072766268 0.080070056
0.91606551 -0.004803523 0.083237797
0.92439973 -0.0044246763 0.086401232
0.93463904 -0.0057257041 0.086140908
0.94317168 -0.0035899829 0.083998248
0.91039485 -0.00023421433 0.077952914
0.91661137 0.0034535537 0.081298053
0.92438966 0.0050752461 0.085206866
0.93499273 0.0051399032 0.087779135
0.94232488 0.0043221675 0.087072782
0.92016268 0.012553568 0.080183946
0.92625719 0.015129889 0.082713403
0.93395913 0.014952822 0.086406589
0.9445557 0.015796026 0.089921057
0.9530198 0.017475912 0.089668982
0.96028894 0.019426648 0.086841077
0.92749065 0.024243446 0.081534326
0.93361533 0.025533387 0.085604541
0.94184047 0.02564464 0.090292461
0.95554507 0.021237057 0.090588994
0.96715236 0.025240777 0.08538799
0.97270089 0.025802918 0.081987143
0.92932677 0.03286688 0.079355672
0.93500513 0.035329249 0.083677597
0.94175214 0.036104809 0.088586189
0.95461041 0.040683825 0.091911703
0.96831161 0.032818079 0.088102803
0.97420603 0.033932153 0.084171861
0.98163527 0.03674154 0.08034727
0.93209857 0.039298385 0.078580104
0.93794823 0.043045711 0.08232078
0.94453382 0.046093229 0.085890792
0.95526516 0.046696674 0.08775685
0.9652338 0.04652153 0.086527288
0.97384071 0.044241872 0.08390069
0.98037946 0.043703016 0.079649299
0.94047672 0.047920506 0.080594897
0.94674641 0.051511709 0.082038604
0.9553411 0.052998003 0.084155701
0.96468908 0.050892856 0.083335541
0.8736136 -0.024945686 0.10122815
0.87645137 -0.025902625 0.09681417
0.88248456 -0.022891255 0.09056744
0.87618828 -0.017587723 0.095688038
0.88051885 -0.024572842 0.090017654
0.92555797 -0.0051410627 0.086955711
0.93053049 -0.0082715666 0.085996084
0.92669111 0.00057063613 0.086722329
0.94338244 0.0049686399 0.086766191
0.93720639 0.014531088 0.087432534
0.9449091 0.015983004 0.089822106
0.95323408 0.017665815 0.089509256
0.93883097 0.02430162 0.08864186
0.94631433 0.025773434 0.091614112
0.95374614 0.025125613 0.091618866
0.9612484 0.027931146 0.090056188
0.94007099 0.032386228 0.089124359
0.94587791 0.03465727 0.092147857
0.95456976 0.034244042 0.092943698
0.96303362 0.035777066 0.090746291
0.94137037 0.045901515 0.085257463
0.94619614 0.042861678 0.090454891
0.95465302 0.043561604 0.091143414
0.96150219 0.043094579 0.0893187
0.94714516 0.04829229 0.086996034
0.95606667 0.049492896 0.086838096
0.86722696 -0.025969421 0.10638124
0.8720336 -0.025436087 0.10220142
0.87579477 -0.028895721 0.096906386
0.86895537 -0.018179154 0.10606595
0.87351018 -0.018504612 0.099824898
0.95074397 0.029227156 0.092799023
0.86911732 -0.020570798 0.10782602
0 0 0 1 0 0 0 1 0 0 0 1 0 0 0 0 0 852 1 0 0
